# .PCD v0.7 - Point Cloud Data file format
VERSION 0.7
FIELDS x y z normal_x normal_y normal_z curvature
SIZE 4 4 4 4 4 4 4
TYPE F F F F F F F
COUNT 1 1 1 1 1 1 1
WIDTH 582
HEIGHT 1
VIEWPOINT 0 0 0 1 0 0 0
POINTS 582
DATA ascii
0.050285719 -0.019809525 0.80000001 -0.050599359 0.65225661 0.0021811426 0.65421993
0.053333338 -0.019809525 0.80000001 -0.029367764 0.66771507 -0.008842051 0.66841906
0.063476197 -0.019190477 0.77500004 0.38175794 0.22409801 -0.41798741 0.60882884
0.066428579 -0.019190477 0.77500004 0.41104132 0.1607327 -0.59904069 0.7440697
0.069201909 -0.019140953 0.77300006 0.39224008 -0.037548542 -0.75348115 0.85029173
-0.0045542861 -0.01669905 0.79700005 -0.033480734 0.15450759 -0.031924367 0.1612846
-0.0015180954 -0.01669905 0.79700005 -0.035086937 0.15574017 -0.032962888 0.16301118
0.0015180954 -0.01669905 0.79700005 -0.040462062 0.28752017 -0.024555266 0.29138976
0.0045600003 -0.016720001 0.79800004 -0.036509477 0.35123855 -0.010303497 0.35328123
0.0076000006 -0.016720001 0.79800004 -0.039120276 0.39966401 0.0043857098 0.40159801
0.010640001 -0.016720001 0.79800004 -0.048102923 0.42799586 0.01307711 0.43088904
0.013680001 -0.016720001 0.79800004 -0.056597628 0.44353208 0.015206873 0.44738713
0.016720001 -0.016720001 0.79800004 -0.062055953 0.46033356 0.014283925 0.46471706
0.019760001 -0.016720001 0.79800004 -0.08582624 0.49348736 0.023810118 0.50146067
0.022771429 -0.01669905 0.79700005 -0.10184859 0.51536298 0.027129084 0.52603054
0.025807621 -0.01669905 0.79700005 -0.10635696 0.54124701 0.034144729 0.55265361
0.028843811 -0.01669905 0.79700005 -0.10889673 0.56780326 0.036767155 0.5793193
0.031880002 -0.01669905 0.79700005 -0.10489278 0.59273857 0.041379273 0.60336864
0.034916192 -0.01669905 0.79700005 -0.095339 0.61850274 0.050056636 0.62780637
0.037952382 -0.01669905 0.79700005 -0.088242024 0.62486315 0.052688897 0.63325882
0.041040003 -0.016720001 0.79800004 -0.078816272 0.63387239 0.051640034 0.64083761
0.044080004 -0.016720001 0.79800004 -0.064537629 0.63133091 0.042993635 0.63607568
0.047238097 -0.016761906 0.80000001 -0.057658311 0.64248013 0.047953516 0.64684212
0.050160002 -0.016720001 0.79800004 -0.04045276 0.6439749 0.033064216 0.64609081
0.053200003 -0.016720001 0.79800004 -0.018117577 0.66140437 0.028990835 0.66228729
0.056169529 -0.01669905 0.79700005 -0.014307007 0.66202569 0.017564207 0.66241318
0.060367621 -0.016196191 0.77300006 0.36641902 0.17371432 -0.29834631 0.50343829
0.063312382 -0.016196191 0.77300006 0.40805563 0.17716105 -0.43985564 0.6255945
0.06617143 -0.016175238 0.77200001 0.42564321 0.1443968 -0.5767253 0.73118716
0.069112383 -0.016175238 0.77200001 0.4067263 0.058933616 -0.72311449 0.83174157
0.072053336 -0.016175238 0.77200001 0.39965597 0.018050367 -0.75505042 0.85448921
-0.007571429 -0.013628572 0.79500002 -0.027218971 0.14358543 -0.025581747 0.14836466
-0.0045542861 -0.013662858 0.79700005 -0.03789454 0.23452243 -0.021709889 0.23855415
-0.0015180954 -0.013662858 0.79700005 -0.042488359 0.3121568 -0.0060016215 0.31509227
0.0015180954 -0.013662858 0.79700005 -0.040905852 0.37619901 0.020279944 0.37895945
0.0045542861 -0.013662858 0.79700005 -0.039654236 0.4123593 0.033395737 0.41560549
0.0075904769 -0.013662858 0.79700005 -0.044170935 0.43335849 0.039421022 0.43738389
0.010626667 -0.013662858 0.79700005 -0.051223323 0.44787329 0.04421705 0.45295638
0.013662858 -0.013662858 0.79700005 -0.05234319 0.45911884 0.048909813 0.46467417
0.01669905 -0.013662858 0.79700005 -0.065114819 0.48169565 0.053905457 0.48905671
0.019735239 -0.013662858 0.79700005 -0.08335337 0.51196569 0.060070366 0.5221734
0.022771429 -0.013662858 0.79700005 -0.091113262 0.53930533 0.06282565 0.5505442
0.025807621 -0.013662858 0.79700005 -0.093360163 0.57738549 0.071003616 0.58917874
0.028843811 -0.013662858 0.79700005 -0.098388344 0.59123731 0.070031732 0.60344535
0.031880002 -0.013662858 0.79700005 -0.094484091 0.61182201 0.073688984 0.62344486
0.034916192 -0.013662858 0.79700005 -0.092136472 0.61989033 0.070444226 0.63064694
0.037952382 -0.013662858 0.79700005 -0.084713541 0.63066435 0.072202921 0.64041173
0.040988576 -0.013662858 0.79700005 -0.070358552 0.63147914 0.063149989 0.63851714
0.044080004 -0.013680001 0.79800004 -0.064783968 0.63753772 0.061928213 0.64380622
0.047060955 -0.013662858 0.79700005 -0.054092087 0.63859642 0.058044791 0.64350647
0.050097145 -0.013662858 0.79700005 -0.04155127 0.64191687 0.050841182 0.64526629
0.053133335 -0.013662858 0.79700005 -0.020432413 0.6442076 0.04264307 0.64594066
0.055746671 -0.013560001 0.79100001 0.10022011 0.62054539 -0.019212842 0.62887979
0.058760002 -0.013560001 0.79100001 0.070974097 0.63963211 -0.021854281 0.64392871
0.060367621 -0.013251429 0.77300006 0.39484188 0.12664557 -0.32176909 0.52485669
0.063066669 -0.013200001 0.77000004 0.39729053 0.14439322 -0.33151972 0.53720993
0.066000007 -0.013200001 0.77000004 0.44173282 0.12530667 -0.50410724 0.68187517
0.068933338 -0.013200001 0.77000004 0.38945112 0.075361066 -0.74593759 0.84485167
0.073640004 -0.013525715 0.78900003 -0.10946486 -0.19525577 -0.092173547 0.24208125
0.076645717 -0.013525715 0.78900003 -0.23393008 0.013691358 -0.039483249 0.23763345
0.079853341 -0.013560001 0.79100001 -0.071985148 0.36609778 -0.039328665 0.37517488
0.082866669 -0.013560001 0.79100001 -0.049735926 0.33314544 -0.047145158 0.34012088
0.086097151 -0.013594287 0.79300004 -0.038834162 0.3919223 -0.024010271 0.39457276
0.089118101 -0.013594287 0.79300004 -0.025536612 0.35281849 -0.034907579 0.35545963
0.09213905 -0.013594287 0.79300004 -0.018909456 0.34031951 -0.029275656 0.3420994
0.094920009 -0.013560001 0.79100001 -0.0087799849 0.28193986 -0.048504561 0.28621647
0.097933337 -0.013560001 0.79100001 0.0012453415 0.29134855 -0.048171073 0.29530659
0.10396001 -0.013560001 0.79100001 0.018547367 0.27806067 -0.043527901 0.28205746
-0.007571429 -0.010600001 0.79500002 -0.038905185 0.20338422 -0.020814598 0.20811537
-0.0045428574 -0.010600001 0.79500002 -0.040284913 0.28259441 -0.006588608 0.28552738
-0.0015142858 -0.010600001 0.79500002 -0.047605209 0.39234599 0.036406547 0.39689681
0.0015142858 -0.010600001 0.79500002 -0.046500381 0.40797594 0.051287562 0.41380802
0.0045428574 -0.010600001 0.79500002 -0.042212535 0.41031539 0.056305856 0.41630635
0.007571429 -0.010600001 0.79500002 -0.046243757 0.4086749 0.057590872 0.41529551
0.010600001 -0.010600001 0.79500002 -0.047402192 0.41744143 0.064258754 0.42501
0.013594287 -0.010573334 0.79300004 -0.058657974 0.42698196 0.062314004 0.43547374
0.016657144 -0.010600001 0.79500002 -0.065984994 0.45382148 0.083873987 0.46620038
0.019685715 -0.010600001 0.79500002 -0.077518374 0.47826785 0.088104934 0.4924548
0.022657145 -0.010573334 0.79300004 -0.082972743 0.4943732 0.079958439 0.50762457
0.025742859 -0.010600001 0.79500002 -0.080779471 0.54302227 0.093041539 0.55682606
0.02869905 -0.010573334 0.79300004 -0.083383903 0.54972053 0.081531137 0.5619545
0.031720001 -0.010573334 0.79300004 -0.086228326 0.57429498 0.08834362 0.58741355
0.034740955 -0.010573334 0.79300004 -0.084748983 0.58011019 0.090285271 0.59317929
0.037761908 -0.010573334 0.79300004 -0.079085931 0.58178103 0.083310664 0.59301299
0.040782861 -0.010573334 0.79300004 -0.063320443 0.58631015 0.088705838 0.59635377
0.043803811 -0.010573334 0.79300004 -0.05245281 0.59815145 0.083618164 0.60624123
0.046824764 -0.010573334 0.79300004 -0.041872717 0.60766929 0.072871864 0.61345381
0.049720004 -0.010546668 0.79100001 -0.029277109 0.60656464 0.060611337 0.61028808
0.052733336 -0.010546668 0.79100001 0.001506798 0.62001538 0.053817719 0.62234855
0.055535242 -0.010506667 0.78800005 0.11412064 0.5722062 0.019247025 0.58379269
0.058537148 -0.010506667 0.78800005 0.12068048 0.54940265 0.026521891 0.56312561
0.059977148 -0.010240001 0.76800001 0.38203582 0.13606222 -0.29822052 0.50338829
0.062820956 -0.010226667 0.76700002 0.39386693 0.14477777 -0.31380665 0.52399081
0.065742858 -0.010226667 0.76700002 0.39988461 0.12815337 -0.70196533 0.81797695
0.068664767 -0.010226667 0.76700002 0.36279565 0.086543739 -0.78957713 0.87323684
0.073640004 -0.010520001 0.78900003 -0.26344872 0.33421317 0.010023803 0.42568079
0.076645717 -0.010520001 0.78900003 -0.21916297 0.41790339 0.017534792 0.47221088
0.07965143 -0.010520001 0.78900003 -0.10913546 0.45343876 -0.023465186 0.46697739
0.082866669 -0.010546668 0.79100001 -0.070921019 0.51685417 -0.0015711188 0.52169967
0.086097151 -0.010573334 0.79300004 -0.060073964 0.52768981 0.024286777 0.53165334
0.089118101 -0.010573334 0.79300004 -0.052886251 0.52127516 0.028999507 0.52475297
0.09213905 -0.010573334 0.79300004 -0.04856699 0.50495321 0.023584634 0.50783139
0.094920009 -0.010546668 0.79100001 -0.031891532 0.43443978 -0.031271219 0.43672973
0.097933337 -0.010546668 0.79100001 -0.02083705 0.42431471 -0.036049038 0.42635277
0.10069144 -0.010520001 0.78900003 0.0014668059 0.38231611 -0.047298849 0.38523361
0.10369715 -0.010520001 0.78900003 0.010992913 0.38463813 -0.042493522 0.38713437
0.10697334 -0.010546668 0.79100001 -0.016064785 0.39964962 -0.036730558 0.40165538
0.10998667 -0.010546668 0.79100001 -0.031858154 0.34813991 -0.052151114 0.35346296
0.11328572 -0.010573334 0.79300004 -0.047636956 0.34332222 -0.043916702 0.34938246
0.11872572 -0.010520001 0.78900003 -0.026129398 0.16797543 -0.05879426 0.17987566
0.12568572 -0.010600001 0.79500002 -0.020722039 0.2906363 -0.072592527 0.30028075
0.12871429 -0.010600001 0.79500002 -0.011394037 0.25757509 -0.087623477 0.27230981
-0.007571429 -0.007571429 0.79500002 -0.048143573 0.35559934 0.023257256 0.35959643
-0.0045428574 -0.007571429 0.79500002 -0.04501944 0.41381896 0.053349167 0.41966537
-0.0015104763 -0.0075523816 0.79300004 -0.064643368 0.39407998 0.060247511 0.40386575
0.0015104763 -0.0075523816 0.79300004 -0.058607619 0.4068343 0.068190843 0.41665214
0.0045200004 -0.0075333337 0.79100001 -0.051905721 0.40600714 0.062522292 0.41405922
0.0075333337 -0.0075333337 0.79100001 -0.04897448 0.39851499 0.062040061 0.40627784
0.010546668 -0.0075333337 0.79100001 -0.047694679 0.3937062 0.066115916 0.40205804
0.013560001 -0.0075333337 0.79100001 -0.05864213 0.41047704 0.079612494 0.4222185
0.016573334 -0.0075333337 0.79100001 -0.067639947 0.42225623 0.093556046 0.43775362
0.019586667 -0.0075333337 0.79100001 -0.07180851 0.44817972 0.098270297 0.46441206
0.022600001 -0.0075333337 0.79100001 -0.070589989 0.46926212 0.092406124 0.48345503
0.025613336 -0.0075333337 0.79100001 -0.073248036 0.50039983 0.09402141 0.51439798
0.028554287 -0.0075142863 0.78900003 -0.082201026 0.51252514 0.087243021 0.52635574
0.031640001 -0.0075333337 0.79100001 -0.075664178 0.53997189 0.10655373 0.55556136
0.034653336 -0.0075333337 0.79100001 -0.081390478 0.54020053 0.10915145 0.55709523
0.037666671 -0.0075333337 0.79100001 -0.072170757 0.54895109 0.10818744 0.56414574
0.040680002 -0.0075333337 0.79100001 -0.058632828 0.55039769 0.10841215 0.56402892
0.043693338 -0.0075333337 0.79100001 -0.039812032 0.56474555 0.10252735 0.57535589
0.046588574 -0.0075142863 0.78900003 -0.01872123 0.57317162 0.082343847 0.57935888
0.049594291 -0.0075142863 0.78900003 0.00530985 0.58425701 0.073528647 0.58888954
0.052600004 -0.0075142863 0.78900003 0.048361041 0.58006233 0.065740466 0.58577549
0.055394288 -0.0074857147 0.78600001 0.15212932 0.56967223 0.012573719 0.58976936
0.057051431 -0.0073142862 0.76800001 0.37744015 0.12256873 -0.28292173 0.48736936
0.059899051 -0.0073047625 0.76700002 0.39647242 0.11446471 -0.31474644 0.51899695
0.062820956 -0.0073047625 0.76700002 0.42232895 0.14967754 -0.59884131 0.74791443
0.065571435 -0.0072857146 0.76500005 0.36636537 0.14602807 -0.75482547 0.85165095
0.070634291 -0.0075142863 0.78900003 -0.18914308 0.45483375 0.10509548 0.50368035
0.073640004 -0.0075142863 0.78900003 -0.17092007 0.5156154 0.071873128 0.54794037
0.076645717 -0.0075142863 0.78900003 -0.13291824 0.53770012 0.043703049 0.55560654
0.07965143 -0.0075142863 0.78900003 -0.093455233 0.54454416 0.040727228 0.55400443
0.082657151 -0.0075142863 0.78900003 -0.074940778 0.53419536 0.026021838 0.54005367
0.085880004 -0.0075333337 0.79100001 -0.067755193 0.56902063 0.037510157 0.57426673
0.088893339 -0.0075333337 0.79100001 -0.060406119 0.56506145 0.032934159 0.56923461
0.091906674 -0.0075333337 0.79100001 -0.060430419 0.55878991 0.032011479 0.5629589
0.094920009 -0.0075333337 0.79100001 -0.051370852 0.54702926 0.018842012 0.54975903
0.097685717 -0.0075142863 0.78900003 -0.034096446 0.51473618 -0.0062840581 0.51590252
0.10056382 -0.0075047626 0.78800005 -0.016722362 0.49375683 -0.013460308 0.49422327
0.10369715 -0.0075142863 0.78900003 -0.010209301 0.50475764 -0.0087276995 0.50493634
0.10670286 -0.0075142863 0.78900003 -0.014169915 0.48093969 -0.018733531 0.48151296
0.10970858 -0.0075142863 0.78900003 -0.028022762 0.45772305 -0.027192414 0.45938554
0.11271429 -0.0075142863 0.78900003 -0.035641853 0.40063182 -0.051063061 0.40544251
0.11572001 -0.0075142863 0.78900003 -0.037814021 0.32271111 -0.064925134 0.33134216
0.11872572 -0.0075142863 0.78900003 -0.02641305 0.25537327 -0.074315548 0.26727507
0.12173144 -0.0075142863 0.78900003 -0.021963887 0.26537523 -0.079530418 0.27790558
0.12505335 -0.0075333337 0.79100001 -0.0023355633 0.34111485 -0.083881199 0.35128456
0.12774287 -0.0075142863 0.78900003 0.011185303 0.24050401 -0.090795249 0.2573151
0.13058287 -0.0075047626 0.78800005 0.019065019 0.19950464 -0.090239078 0.21979234
0.13358477 -0.0075047626 0.78800005 0.02232011 0.18376166 -0.092820585 0.20708016
0.13658668 -0.0075047626 0.78800005 0.019187603 0.17462492 -0.094929427 0.1996838
-0.0075523816 -0.0045314287 0.79300004 -0.054212511 0.3659274 0.033668816 0.37145048
-0.0045200004 -0.0045200004 0.79100001 -0.060706615 0.34223008 0.033550233 0.34918812
-0.0015066668 -0.0045200004 0.79100001 -0.062466845 0.40053323 0.067961603 0.41103256
0.0015066668 -0.0045200004 0.79100001 -0.065306008 0.3975856 0.079420477 0.41066629
0.0045200004 -0.0045200004 0.79100001 -0.061310083 0.38053071 0.076155424 0.39288956
0.0075333337 -0.0045200004 0.79100001 -0.060899824 0.38306788 0.080794811 0.39620399
0.010546668 -0.0045200004 0.79100001 -0.045790941 0.38702661 0.084352583 0.39875028
0.013560001 -0.0045200004 0.79100001 -0.059959754 0.39885831 0.097122699 0.41486859
0.016573334 -0.0045200004 0.79100001 -0.059919339 0.42006811 0.1079587 0.43783858
0.019537143 -0.0045085717 0.78900003 -0.067524433 0.44525501 0.10665685 0.46280369
0.022542858 -0.0045085717 0.78900003 -0.064359412 0.44871408 0.10864583 0.46614414
0.025548574 -0.0045085717 0.78900003 -0.065324828 0.46578479 0.10383797 0.4816691
0.028554287 -0.0045085717 0.78900003 -0.070137292 0.48001373 0.10799587 0.49698645
0.031560004 -0.0045085717 0.78900003 -0.08095368 0.50088668 0.1071493 0.51857686
0.034565717 -0.0045085717 0.78900003 -0.07909146 0.52510267 0.10952935 0.54220378
0.03757143 -0.0045085717 0.78900003 -0.068788916 0.53821158 0.10703015 0.55304527
0.040577147 -0.0045085717 0.78900003 -0.046586618 0.53831744 0.11294162 0.55200708
0.04358286 -0.0045085717 0.78900003 -0.035474449 0.5526315 0.10577732 0.56378084
0.046588574 -0.0045085717 0.78900003 -0.0046787709 0.56020975 0.094183683 0.56809103
0.049594291 -0.0045085717 0.78900003 0.0049722716 0.56962889 0.081114829 0.57539678
0.052533336 -0.0045028576 0.78800005 0.03495504 0.56646943 0.074440151 0.5724079
0.055253338 -0.0044800001 0.78400004 0.20700026 0.39553165 0.026144236 0.44718891
0.057051431 -0.0043885717 0.76800001 0.34124005 0.022258488 -0.20321509 0.39778963
0.059899051 -0.0043828576 0.76700002 0.39835909 0.08003071 -0.29580563 0.50258917
0.062820956 -0.0043828576 0.76700002 0.29045978 0.19214045 -0.82626987 0.8966642
0.065571435 -0.0043714289 0.76500005 0.28261769 0.19600543 -0.84131026 0.90889704
0.070544764 -0.0045028576 0.78800005 -0.11958456 0.50402677 0.1170814 0.53108519
0.07354667 -0.0045028576 0.78800005 -0.13393871 0.49935418 0.10804969 0.52817506
0.076548576 -0.0045028576 0.78800005 -0.11333891 0.51495188 0.086874098 0.53438586
0.079550482 -0.0045028576 0.78800005 -0.098373868 0.53161371 0.073242873 0.5455777
0.082657151 -0.0045085717 0.78900003 -0.07513503 0.53260392 0.074692279 0.54303879
0.085662864 -0.0045085717 0.78900003 -0.066399731 0.53404665 0.062529266 0.54177916
0.088668577 -0.0045085717 0.78900003 -0.061626732 0.53468752 0.05722183 0.54126048
0.091674291 -0.0045085717 0.78900003 -0.055593211 0.54073685 0.052916974 0.5461567
0.094560005 -0.0045028576 0.78800005 -0.041521147 0.5217663 0.027368814 0.52413082
0.097561911 -0.0045028576 0.78800005 -0.033464681 0.52415884 0.019110471 0.52557355
0.10056382 -0.0045028576 0.78800005 -0.021976877 0.5362227 0.016301394 0.53692037
0.10356572 -0.0045028576 0.78800005 -0.015767964 0.54614824 0.022292644 0.54683042
0.10656763 -0.0045028576 0.78800005 -0.022488337 0.54316127 0.022375584 0.54408687
0.10970858 -0.0045085717 0.78900003 -0.031304784 0.54108608 0.022627115 0.542463
0.11271429 -0.0045085717 0.78900003 -0.040434659 0.54000247 0.0182302 0.54182094
0.11572001 -0.0045085717 0.78900003 -0.034432124 0.52547252 0.0063179731 0.52663732
0.11872572 -0.0045085717 0.78900003 -0.035714973 0.51561797 -0.0038769245 0.51686794
0.12157715 -0.0045028576 0.78800005 -0.016233832 0.45233113 -0.045375258 0.45489109
0.12457906 -0.0045028576 0.78800005 -0.0002822876 0.40736783 -0.066402078 0.41274428
0.12758096 -0.0045028576 0.78800005 0.0079866312 0.34501153 -0.084014416 0.35518327
0.13058287 -0.0045028576 0.78800005 0.021942031 0.30197498 -0.094685137 0.31723118
0.13324572 -0.0044914288 0.78600001 0.027941499 0.18717118 -0.083045691 0.20666486
0.13658668 -0.0045028576 0.78800005 0.025289603 0.18823636 -0.086505353 0.20869996
0.13958858 -0.0045028576 0.78800005 0.041510172 0.19269836 -0.10376021 0.22275981
-0.0075333337 -0.0015066668 0.79100001 -0.073538281 0.33756855 0.044445187 0.34833285
-0.0045200004 -0.0015066668 0.79100001 -0.0728788 0.39433727 0.080884188 0.40909103
-0.0015066668 -0.0015066668 0.79100001 -0.071690314 0.38488829 0.092734635 0.40234092
0.0015066668 -0.0015066668 0.79100001 -0.069541469 0.37511846 0.092186362 0.39248976
0.0045200004 -0.0015066668 0.79100001 -0.059748761 0.34970608 0.092695206 0.36668333
0.0075333337 -0.0015066668 0.79100001 -0.055055048 0.32660303 0.099362403 0.34579399
0.010546668 -0.0015066668 0.79100001 -0.052004807 0.32439166 0.10330769 0.34439358
0.013525715 -0.0015028572 0.78900003 -0.05533199 0.34973481 0.1096682 0.37067935
0.01653143 -0.0015028572 0.78900003 -0.053259809 0.37188113 0.11986572 0.39433485
0.019537143 -0.0015028572 0.78900003 -0.048027337 0.38902336 0.12514624 0.41146979
0.022542858 -0.0015028572 0.78900003 -0.049124815 0.41335145 0.12377614 0.43427315
0.025516191 -0.0015009525 0.78800005 -0.051642276 0.42253363 0.11736155 0.44156012
0.028518097 -0.0015009525 0.78800005 -0.054497883 0.4442637 0.12214211 0.46396008
0.031520002 -0.0015009525 0.78800005 -0.059515901 0.45554483 0.13266641 0.47818783
0.034521908 -0.0015009525 0.78800005 -0.06693545 0.47197038 0.13226032 0.49470112
0.037428573 -0.0014971429 0.78600001 -0.048277665 0.47341532 0.11879879 0.49047524
0.040422861 -0.0014971429 0.78600001 -0.039464895 0.47899878 0.12362859 0.49626741
0.043527622 -0.0015009525 0.78800005 -0.0069498271 0.5046699 0.12184483 0.5192169
0.046529528 -0.0015009525 0.78800005 0.0073522627 0.50970614 0.11102507 0.52170968
0.04953143 -0.0015009525 0.78800005 0.054573804 0.49288905 0.099109501 0.50570798
0.052400004 -0.0014971429 0.78600001 0.092808478 0.49265558 0.086347103 0.50870299
0.05497143 -0.0014857143 0.78000003 0.1765485 0.024725795 -0.061196387 0.18848272
0.057200003 -0.0014666668 0.77000004 0.19776407 -0.14645997 -0.11305216 0.27081716
0.059977148 -0.0014628572 0.76800001 0.062068477 -0.21333739 -0.083322912 0.23729317
0.062820956 -0.0014609525 0.76700002 0.16333559 0.25589365 -0.89227504 0.94250453
0.065828577 -0.0014628572 0.76800001 -0.19269149 -0.17379162 -0.066288173 0.26782021
0.070186675 -0.0014933334 0.78400004 -0.23110163 0.18027329 0.067855507 0.30085012
0.073360004 -0.0014971429 0.78600001 -0.15040916 0.44072455 0.1141839 0.47947785
0.076354288 -0.0014971429 0.78600001 -0.094738036 0.45652121 0.099344403 0.47671399
0.079348579 -0.0014971429 0.78600001 -0.088485621 0.47101194 0.094177157 0.48841712
0.082342863 -0.0014971429 0.78600001 -0.067443043 0.4796924 0.084301233 0.49169102
0.085337147 -0.0014971429 0.78600001 -0.058465142 0.48962048 0.0785622 0.49931794
0.088556193 -0.0015009525 0.78800005 -0.058459286 0.51171678 0.081059605 0.52138489
0.091558099 -0.0015009525 0.78800005 -0.043988939 0.51968002 0.072915524 0.52661091
0.094320007 -0.0014971429 0.78600001 -0.03001985 0.50908202 0.045141548 0.51196039
0.097561911 -0.0015009525 0.78800005 -0.028800992 0.54823768 0.056467831 0.55189008
0.10030857 -0.0014971429 0.78600001 -0.019215656 0.53910643 0.041123003 0.54101396
0.10330287 -0.0014971429 0.78600001 -0.010668804 0.53466725 0.045024902 0.53666574
0.10656763 -0.0015009525 0.78800005 -0.024420593 0.54089093 0.052199006 0.54395229
0.10956953 -0.0015009525 0.78800005 -0.031820074 0.53816682 0.053029001 0.54170853
0.11257143 -0.0015009525 0.78800005 -0.035484623 0.52638358 0.046272635 0.5296036
0.11557334 -0.0015009525 0.78800005 -0.026765056 0.51890373 0.041071951 0.52121431
0.11857525 -0.0015009525 0.78800005 -0.02356833 0.52140588 0.031796098 0.52290583
0.12126858 -0.0014971429 0.78600001 -0.0089695826 0.48695019 -0.0052978694 0.48706159
0.12457906 -0.0015009525 0.78800005 -0.0035592467 0.51071596 -0.0083779991 0.51079708
0.12725715 -0.0014971429 0.78600001 0.014663566 0.42254853 -0.051535517 0.42593214
0.13025144 -0.0014971429 0.78600001 0.023618024 0.34065592 -0.073693126 0.34933501
0.13290668 -0.0014933334 0.78400004 0.031420056 0.24648848 -0.080737472 0.26127061
0.13624001 -0.0014971429 0.78600001 0.029118996 0.26593992 -0.091278553 0.28267246
0.13923429 -0.0014971429 0.78600001 0.04275135 0.19503713 -0.092146307 0.21990475
-0.0075333337 0.0015066668 0.79100001 -0.07855165 0.38799322 0.084361166 0.40475413
-0.0045200004 0.0015066668 0.79100001 -0.086921059 0.37720159 0.10504988 0.40108827
-0.0015066668 0.0015066668 0.79100001 -0.073422149 0.32169864 0.10787144 0.34715569
0.0015066668 0.0015066668 0.79100001 -0.073306292 0.31222805 0.10867065 0.33862883
0.0045200004 0.0015066668 0.79100001 -0.047030244 0.23752588 0.10464674 0.26378274
0.0075333337 0.0015066668 0.79100001 -0.044920772 0.23293774 0.10545826 0.25961378
0.010546668 0.0015066668 0.79100001 -0.042683762 0.24105284 0.10646206 0.26695046
0.013560001 0.0015066668 0.79100001 -0.033493191 0.2730571 0.11549234 0.29836297
0.01653143 0.0015028572 0.78900003 -0.043766595 0.29323661 0.12444749 0.32154378
0.019537143 0.0015028572 0.78900003 -0.040808141 0.3075895 0.13153559 0.33701366
0.022514287 0.0015009525 0.78800005 -0.037850991 0.3401494 0.13338163 0.36732134
0.025516191 0.0015009525 0.78800005 -0.042157367 0.34224319 0.13682461 0.37098333
0.028518097 0.0015009525 0.78800005 -0.055050988 0.3517397 0.1423018 0.38340741
0.031440001 0.0014971429 0.78600001 -0.062026158 0.37639442 0.13632354 0.40509763
0.034434289 0.0014971429 0.78600001 -0.066682011 0.38950017 0.14481086 0.42086464
0.037333336 0.0014933334 0.78400004 -0.043016881 0.34388468 0.13418165 0.37163401
0.040422861 0.0014971429 0.78600001 -0.014799915 0.38409337 0.14860237 0.41210365
0.043417145 0.0014971429 0.78600001 0.025680311 0.36650908 0.13972598 0.39307982
0.046411432 0.0014971429 0.78600001 0.06142921 0.3738879 0.12429589 0.39876708
0.049405716 0.0014971429 0.78600001 0.078084417 0.37124279 0.11619964 0.39676285
0.052266669 0.0014933334 0.78400004 0.1287228 0.25702155 0.088766366 0.30084729
0.05497143 0.0014857143 0.78000003 0.1562878 0.056374222 -0.025897443 0.16815054
0.057571433 0.0014761905 0.77500004 0.13698064 -0.24656038 -0.14172679 0.31566152
0.060133338 0.0014666668 0.77000004 0.018583227 -0.26295444 -0.10839662 0.28502667
0.063066669 0.0014666668 0.77000004 -0.030816227 -0.26500309 -0.099428684 0.28471449
0.066428579 0.0014761905 0.77500004 -0.11917591 -0.24694328 -0.095905483 0.29048535
0.070007622 0.0014895239 0.78200006 -0.19747633 0.11651359 0.056693971 0.23619172
0.07298667 0.0014895239 0.78200006 -0.21186355 0.25639081 0.088701487 0.3442243
0.075965717 0.0014895239 0.78200006 -0.14374834 0.394429 0.095981836 0.43063945
0.078944765 0.0014895239 0.78200006 -0.11121744 0.42596436 0.089772344 0.44930393
0.082133338 0.0014933334 0.78400004 -0.064527862 0.44714242 0.096979558 0.46206626
0.08490286 0.0014895239 0.78200006 -0.054236885 0.46783525 0.074753165 0.47686425
0.088106669 0.0014933334 0.78400004 -0.035448678 0.46843085 0.085020155 0.47740179
0.091093339 0.0014933334 0.78400004 -0.027275793 0.50139785 0.073178053 0.50744337
0.094080009 0.0014933334 0.78400004 -0.018201856 0.50459033 0.05794692 0.50823277
0.097066671 0.0014933334 0.78400004 -0.01116463 0.51144904 0.055140585 0.51453406
0.10005334 0.0014933334 0.78400004 -0.016532667 0.5119797 0.060496122 0.5158065
0.10304001 0.0014933334 0.78400004 -0.015578684 0.51404595 0.065938771 0.51849192
0.10602667 0.0014933334 0.78400004 -0.018953003 0.51097506 0.069087297 0.51597267
0.10929143 0.0014971429 0.78600001 -0.025835544 0.50575513 0.072896957 0.51163435
0.11228572 0.0014971429 0.78600001 -0.027248871 0.4908191 0.071597338 0.49676159
0.11528001 0.0014971429 0.78600001 -0.019745145 0.488922 0.062338501 0.49327546
0.11827429 0.0014971429 0.78600001 -0.014318308 0.49481457 0.052428693 0.49779037
0.12096 0.0014933334 0.78400004 0.005528681 0.48923951 0.026117802 0.48996735
0.12426286 0.0014971429 0.78600001 0.013173316 0.50348914 0.027502716 0.50441176
0.12660953 0.0014895239 0.78200006 0.031982087 0.35478145 -0.050298214 0.35975358
0.12992001 0.0014933334 0.78400004 0.029771592 0.39810801 -0.045771301 0.40183499
0.13222858 0.0014857143 0.78000003 0.039454445 0.16287664 -0.066924751 0.18045601
0.13520001 0.0014857143 0.78000003 0.051212072 0.13407591 -0.06122452 0.15603675
0.13799429 0.0014838097 0.77900004 0.047518045 0.12662588 -0.06238699 0.14894366
-0.0075333337 0.0045200004 0.79100001 -0.11289122 0.36088535 0.11001801 0.39381039
-0.0045314287 0.0045314287 0.79300004 -0.11288086 0.29015115 0.12200299 0.33438674
-0.0015066668 0.0045200004 0.79100001 -0.066176727 0.21985805 0.11002448 0.25460225
0.0015066668 0.0045200004 0.79100001 -0.04941988 0.14675532 0.089048803 0.17863129
0.0045200004 0.0045200004 0.79100001 -0.042391844 0.14950936 0.089759916 0.17946297
0.0075523816 0.0045314287 0.79300004 -0.035581898 0.14990756 0.091877162 0.17938717
0.010573334 0.0045314287 0.79300004 -0.037588537 0.15491301 0.094943017 0.18554007
0.013560001 0.0045200004 0.79100001 -0.016885318 0.13977481 0.086586714 0.16528572
0.016573334 0.0045200004 0.79100001 -0.010891877 0.18145528 0.10367748 0.20926937
0.019537143 0.0045085717 0.78900003 -0.031011246 0.21770674 0.12160751 0.25128928
0.022542858 0.0045085717 0.78900003 -0.034485884 0.23343229 0.12512416 0.26708794
0.025516191 0.0045028576 0.78800005 -0.040804394 0.23846307 0.13332593 0.27623439
0.028445717 0.0044914288 0.78600001 -0.047071368 0.22800837 0.12704179 0.26522285
0.031440001 0.0044914288 0.78600001 -0.059115287 0.24038342 0.13533914 0.28212672
0.034434289 0.0044914288 0.78600001 -0.058124322 0.24277842 0.14018691 0.28630781
0.037428573 0.0044914288 0.78600001 -0.030479059 0.24880771 0.14225796 0.28822142
0.040422861 0.0044914288 0.78600001 -0.0033077374 0.26281831 0.14016888 0.29787868
0.043417145 0.0044914288 0.78600001 0.031848542 0.26230565 0.13048172 0.29469317
0.046293337 0.0044800001 0.78400004 0.0885472 0.23931116 0.10549039 0.27611348
0.049280003 0.0044800001 0.78400004 0.12136922 0.19427337 0.076496392 0.2415043
0.052266669 0.0044800001 0.78400004 0.12420738 0.18111262 0.070255339 0.23057552
0.05497143 0.0044571431 0.78000003 0.13064049 0.032885492 -0.026203573 0.13724074
0.057720006 0.0044400003 0.77700001 0.10012385 -0.065995127 -0.087612957 0.14851321
0.060680006 0.0044400003 0.77700001 0.043118022 -0.072328269 -0.0683994 0.10848512
0.063640006 0.0044400003 0.77700001 -0.051419698 -0.084033221 -0.057338148 0.11398786
0.066771433 0.004451429 0.77900004 -0.10713138 -0.020033002 -0.0095612109 0.1094069
0.069828577 0.0044571431 0.78000003 -0.16409674 0.035176039 0.019950479 0.16900626
0.072800003 0.0044571431 0.78000003 -0.1814145 0.11809452 0.056566447 0.22373489
0.075771436 0.0044571431 0.78000003 -0.14999631 0.27562305 0.10140085 0.32977128
0.078742862 0.0044571431 0.78000003 -0.09217494 0.37089881 0.10637644 0.39670908
0.081714287 0.0044571431 0.78000003 -0.045688525 0.3943615 0.096356302 0.40852538
0.084685721 0.0044571431 0.78000003 -0.043633163 0.42292157 0.092375964 0.43508598
0.087657146 0.0044571431 0.78000003 -0.028963923 0.4527126 0.080947518 0.46080375
0.090860955 0.0044685719 0.78200006 -0.011330094 0.45857751 0.085383713 0.46659628
0.093600005 0.0044571431 0.78000003 -0.0073192287 0.46938139 0.057162195 0.47290587
0.096819051 0.0044685719 0.78200006 -0.0033317246 0.47108346 0.076960593 0.47734019
0.099542864 0.0044571431 0.78000003 -0.018698115 0.47946313 0.058707654 0.48340574
0.10277715 0.0044685719 0.78200006 -0.014220677 0.48367989 0.079294831 0.49034286
0.1057562 0.0044685719 0.78200006 -0.014100488 0.47632319 0.084109396 0.48389772
0.10873525 0.0044685719 0.78200006 -0.020005915 0.46661645 0.083734006 0.47449186
0.1117143 0.0044685719 0.78200006 -0.014466137 0.45591354 0.079464287 0.46301296
0.11469334 0.0044685719 0.78200006 -0.012188667 0.45071864 0.070883095 0.45642117
0.11797334 0.0044800001 0.78400004 0.010638945 0.45226488 0.070410132 0.45783654
0.12065144 0.0044685719 0.78200006 0.025541086 0.44349584 0.051801294 0.44724074
0.12363049 0.0044685719 0.78200006 0.035184611 0.44434339 0.033333987 0.44697893
0.12660953 0.0044685719 0.78200006 0.04502777 0.44463679 0.0085950196 0.44699356
0.12925716 0.0044571431 0.78000003 0.044203002 0.33853206 -0.052507252 0.34541985
0.13222858 0.0044571431 0.78000003 0.05532448 0.26345226 -0.066622227 0.27732003
0.13502668 0.004451429 0.77900004 0.058212493 0.15738758 -0.066067249 0.18034531
0.13764001 0.0044400003 0.77700001 0.052003719 0.11768083 -0.057225227 0.14081155
0.007619048 0.007619048 0.80000001 -0.055230457 0.094866633 0.077729464 0.13450631
0.010626667 0.0075904769 0.79700005 -0.04052138 0.090985656 0.073085368 0.12353883
0.013662858 0.0075904769 0.79700005 -0.021117665 0.093620092 0.071827412 0.11987433
0.01669905 0.0075904769 0.79700005 0.019424506 0.11762616 0.079430461 0.1432565
0.019685715 0.007571429 0.79500002 -0.010640301 0.12293372 0.091498107 0.15361582
0.022714287 0.007571429 0.79500002 -0.013104856 0.13435824 0.10185003 0.16910738
0.031440001 0.0074857147 0.78600001 -0.046556592 0.17151734 0.11827412 0.21348181
0.034521908 0.0075047626 0.78800005 -0.048181061 0.19605385 0.12978399 0.24000502
0.037666671 0.0075333337 0.79100001 -0.040514745 0.22297096 0.13595298 0.26427391
0.040680002 0.0075333337 0.79100001 -0.023824953 0.23668411 0.1364468 0.2742348
0.043693338 0.0075333337 0.79100001 -0.0013692006 0.24033129 0.13275886 0.27456495
0.046588574 0.0075142863 0.78900003 0.053624146 0.21971554 0.11360857 0.25309557
0.049280003 0.0074666673 0.78400004 0.086080059 0.14521281 0.073380917 0.18406874
0.052266669 0.0074666673 0.78400004 0.10699556 0.11927077 0.050603032 0.16803046
0.055112384 0.0074476195 0.78200006 0.10643537 0.040148556 -0.0042889714 0.11383668
0.05794286 0.007428572 0.78000003 0.092169963 0.0035736263 -0.030805558 0.097247392
0.060914289 0.007428572 0.78000003 0.027278714 -0.020457059 -0.02671352 0.043315493
0.063803814 0.0074190479 0.77900004 -0.045300707 -0.038878053 -0.027300149 0.065642633
0.066857144 0.007428572 0.78000003 -0.10193808 0.00014859438 0.0065787435 0.10215025
0.069828577 0.007428572 0.78000003 -0.1307348 0.043010414 0.033862561 0.14173271
0.07298667 0.0074476195 0.78200006 -0.12842421 0.19428456 0.10710692 0.25634187
0.075771436 0.007428572 0.78000003 -0.11617316 0.17777881 0.093609452 0.2320867
0.078742862 0.007428572 0.78000003 -0.076690353 0.2407051 0.10987017 0.27548468
0.081714287 0.007428572 0.78000003 -0.03198278 0.32051849 0.11601225 0.34236509
0.084685721 0.007428572 0.78000003 -0.019100526 0.3775855 0.10608283 0.39266932
0.087657146 0.007428572 0.78000003 -0.012548555 0.37950867 0.10739154 0.39461023
0.090628579 0.007428572 0.78000003 -0.0021963343 0.4089843 0.10092765 0.42125928
0.093600005 0.007428572 0.78000003 0.0044519063 0.39954519 0.10037941 0.4119857
0.096447624 0.0074190479 0.77900004 0.0056208624 0.41829345 0.086297274 0.42713958
0.099415243 0.0074190479 0.77900004 -0.0057019778 0.43400699 0.085349292 0.44235629
0.10251429 0.007428572 0.78000003 -0.012425006 0.42357826 0.098755658 0.43511561
0.10548572 0.007428572 0.78000003 -0.021654259 0.42830622 0.10010776 0.44038245
0.10845715 0.007428572 0.78000003 -0.010875022 0.42623919 0.098666906 0.43764514
0.11142858 0.007428572 0.78000003 -0.0063500567 0.40229276 0.095955461 0.41362694
0.11440001 0.007428572 0.78000003 0.00596058 0.402179 0.083205909 0.41073921
0.11767239 0.0074476195 0.78200006 0.020507343 0.40721273 0.083776325 0.41624662
0.12034287 0.007428572 0.78000003 0.042838156 0.41926345 0.059123248 0.42557317
0.12331429 0.007428572 0.78000003 0.047329828 0.44731814 0.046941489 0.45225781
0.12628572 0.007428572 0.78000003 0.061779283 0.44165355 0.02146247 0.44646966
0.12909144 0.0074190479 0.77900004 0.065063536 0.39033306 -0.025463492 0.39653695
0.13205905 0.0074190479 0.77900004 0.069671452 0.36972851 -0.03993082 0.37834871
0.13433334 0.0073809531 0.77500004 0.061846055 0.11516325 -0.05519402 0.14189394
0.13728572 0.0073809531 0.77500004 0.062128343 0.10717398 -0.052558959 0.13456833
0.0076761912 0.010746667 0.80600005 -0.043056235 -0.017050624 -0.0094825029 0.047270298
0.010666667 0.010666667 0.80000001 -0.043822248 0.013257295 0.020638943 0.050220624
0.013680001 0.010640001 0.79800004 -0.027071323 0.039437801 0.039747357 0.062193643
0.016720001 0.010640001 0.79800004 0.022369415 0.058017999 0.043373317 0.075813748
0.019760001 0.010640001 0.79800004 0.010483623 0.062064469 0.050430089 0.080654189
0.022771429 0.010626667 0.79700005 -0.0086430982 0.06365937 0.057767659 0.086396307
0.034653336 0.010546668 0.79100001 -0.04142908 0.11409992 0.095214009 0.1542753
0.037952382 0.010626667 0.79700005 -0.052822009 0.11126381 0.094822735 0.15543859
0.040885717 0.010600001 0.79500002 -0.012447521 0.1454998 0.10397267 0.17926364
0.043914288 0.010600001 0.79500002 -0.0024555698 0.15115352 0.10391247 0.1834427
0.04694286 0.010600001 0.79500002 0.028761558 0.14803581 0.096382737 0.17897336
0.052108575 0.011053334 0.82900006 -0.15351997 0.60316229 0.088950992 0.6287173
0.055133335 0.011026667 0.82700002 -0.11809218 0.64956677 0.073179185 0.66425741
0.055253338 0.010453334 0.78400004 0.08557687 0.062379211 0.023951113 0.10857359
0.058388576 0.010480001 0.78600001 0.059584469 0.061834544 0.036237627 0.093203999
0.06138286 0.010480001 0.78600001 0.017283238 0.059113294 0.047269464 0.077636935
0.064377144 0.010480001 0.78600001 -0.048796825 0.10209617 0.085572481 0.14187109
0.067200005 0.010453334 0.78400004 -0.1045315 0.12339781 0.097385347 0.18877965
0.070007622 0.010426668 0.78200006 -0.10417151 0.1072579 0.083608568 0.17130777
0.07298667 0.010426668 0.78200006 -0.10750517 0.12157989 0.08527863 0.18333432
0.075771436 0.010400001 0.78000003 -0.072200209 0.083759382 0.060462356 0.12603253
0.078944765 0.010426668 0.78200006 -0.043016065 0.22716883 0.11555797 0.25847572
0.081923813 0.010426668 0.78200006 -0.034786612 0.20432132 0.10814765 0.23378029
0.08490286 0.010426668 0.78200006 -0.0091769621 0.22489786 0.11165535 0.25125718
0.087657146 0.010400001 0.78000003 -0.0027748644 0.22017667 0.10449433 0.24373046
0.090628579 0.010400001 0.78000003 0.0092172287 0.25428018 0.11190456 0.27796763
0.093600005 0.010400001 0.78000003 0.0097137373 0.27758902 0.11309385 0.29990038
0.096447624 0.010386667 0.77900004 0.019925211 0.32348409 0.10658866 0.3411746
0.099542864 0.010400001 0.78000003 0.0097272983 0.33950612 0.11471668 0.35849541
0.10251429 0.010400001 0.78000003 -0.008122432 0.35293218 0.11728516 0.37199852
0.10548572 0.010400001 0.78000003 0.00060284242 0.35780168 0.11725166 0.37652406
0.10845715 0.010400001 0.78000003 -0.02120153 0.36205202 0.11413512 0.38020784
0.11142858 0.010400001 0.78000003 -0.01003497 0.36183232 0.10511699 0.37692562
0.11440001 0.010400001 0.78000003 0.011217691 0.35153741 0.099292338 0.3654632
0.11737144 0.010400001 0.78000003 0.031245638 0.35467193 0.093014419 0.36799479
0.12018858 0.010386667 0.77900004 0.053409845 0.36669937 0.08382979 0.37993219
0.1231562 0.010386667 0.77900004 0.066131718 0.39706218 0.074284315 0.40932864
0.12612382 0.010386667 0.77900004 0.084732674 0.41295952 0.050789803 0.42461136
0.12909144 0.010386667 0.77900004 0.094345383 0.43907213 0.025074184 0.4497934
0.13172001 0.010360001 0.77700001 0.10145389 0.38293326 -0.02514258 0.39694196
0.13468 0.010360001 0.77700001 0.088588201 0.32089195 -0.065640479 0.33930543
0.0076761912 0.013817144 0.80600005 -0.13770537 0.72298038 -0.67398 0.99795407
0.010720001 0.013782858 0.80400002 -0.011911683 -0.029759377 -0.029198945 0.043359973
0.023685716 0.014211429 0.82900006 0.0014732927 0.23745108 0.12912041 0.27029106
0.038000003 0.013680001 0.79800004 -0.053165957 0.0062011182 0.018070161 0.056494281
0.040988576 0.013662858 0.79700005 -0.016513184 0.032233417 0.034385711 0.049940519
0.044080004 0.013680001 0.79800004 0.0077200159 0.023188263 0.020390153 0.031828485
0.047120005 0.013680001 0.79800004 0.04354322 0.036941499 0.021458745 0.061001346
0.052108575 0.014211429 0.82900006 -0.099504396 0.5969609 0.10107759 0.61357975
0.055266671 0.014211429 0.82900006 -0.08956559 0.64397228 0.077336699 0.65475434
0.058283813 0.014177144 0.82700002 -0.075234331 0.65628678 0.079494208 0.66535097
0.058611434 0.013525715 0.78900003 0.047637202 0.026917458 0.012196749 0.056059014
0.061617147 0.013525715 0.78900003 0.018017262 0.026137501 0.020409971 0.037740663
0.064622864 0.013525715 0.78900003 -0.022347473 0.04345572 0.042884558 0.065014571
0.067542858 0.013508572 0.78800005 -0.081354149 0.093763709 0.081635177 0.14857467
0.070365719 0.013474287 0.78600001 -0.085143246 0.11233792 0.092320204 0.16849986
0.074200004 0.013628572 0.79500002 -0.065894485 0.13934718 0.11039048 0.18959372
0.077228576 0.013628572 0.79500002 -0.070562102 0.15391295 0.11788145 0.20631103
0.079348579 0.013474287 0.78600001 -0.041628052 0.14768161 0.10365084 0.18516545
0.082342863 0.013474287 0.78600001 -0.026317991 0.15534396 0.1014356 0.18738614
0.085120007 0.013440001 0.78400004 -0.0025189854 0.17347287 0.10246509 0.20149013
0.088106669 0.013440001 0.78400004 0.012937769 0.19785088 0.11013469 0.22680829
0.091093339 0.013440001 0.78400004 0.014853556 0.22529384 0.11898682 0.25521716
0.093840003 0.013405715 0.78200006 0.029146856 0.23886761 0.1177544 0.26790553
0.096571438 0.013371429 0.78000003 0.034400173 0.23466328 0.11101845 0.26186889
0.099415243 0.013354287 0.77900004 0.034842443 0.20067777 0.10129347 0.22747731
0.10212 0.013320001 0.77700001 0.0043823235 0.27728009 0.11570954 0.30048653
0.10535048 0.013354287 0.77900004 0.0090175997 0.27600527 0.11742181 0.30008015
0.10831811 0.013354287 0.77900004 -0.0055048973 0.28214324 0.11532509 0.3048524
0.11142858 0.013371429 0.78000003 -0.0060892375 0.29946089 0.10839188 0.31853211
0.11440001 0.013371429 0.78000003 0.0083095878 0.30633038 0.10534462 0.32404453
0.11737144 0.013371429 0.78000003 0.027892891 0.29934996 0.099858314 0.3167966
0.12018858 0.013354287 0.77900004 0.052326996 0.29609877 0.094625592 0.31522468
0.1231562 0.013354287 0.77900004 0.079293177 0.31501624 0.085418493 0.33588535
0.12580001 0.013320001 0.77700001 0.10134703 0.32787183 0.065079421 0.34929428
0.12876001 0.013320001 0.77700001 0.11984109 0.35762507 0.052119911 0.38075459
0.13138096 0.013285715 0.77500004 0.11712956 0.31952664 -0.015093774 0.34065294
0.13520001 0.013371429 0.78000003 0.13738701 0.48073697 0.018887371 0.50033987
0.0076571433 0.016845716 0.80400002 -0.15415604 0.72736615 -0.66516757 0.99763393
0.010746667 0.01688762 0.80600005 0.02396778 -0.013331085 -0.019952804 0.033915877
0.013817144 0.01688762 0.80600005 -0.11920696 0.78757316 -0.58648473 0.98916435
0.017285716 0.017285716 0.82500005 -0.0079665557 0.17737423 0.11485657 0.21146423
0.020478096 0.01732762 0.82700002 -0.023835354 0.26214123 0.14020613 0.29823464
0.02357143 0.017285716 0.82500005 0.0042882524 0.2270315 0.12813079 0.26072818
0.041040003 0.016720001 0.79800004 -0.015260361 -0.027980417 -0.027420342 0.042043518
0.044080004 0.016720001 0.79800004 0.0218895 -0.016719133 -0.026123941 0.037962351
0.047120005 0.016720001 0.79800004 0.042503841 0.0063616037 -0.0075190663 0.043630067
0.052108575 0.017369526 0.82900006 -0.098482862 0.54675055 0.12800357 0.5701052
0.055266671 0.017369526 0.82900006 -0.058982853 0.57016635 0.11997825 0.58563077
0.058424767 0.017369526 0.82900006 -0.055269182 0.6201508 0.099889696 0.63057089
0.058611434 0.01653143 0.78900003 0.035614237 -0.013522834 -0.025201172 0.04567647
0.061773337 0.016573334 0.79100001 0.01459235 -0.020371169 -0.026550114 0.036507942
0.067800008 0.016573334 0.79100001 -0.06555821 0.044089824 0.048669338 0.092792757
0.070544764 0.016510477 0.78800005 -0.067173854 0.059423208 0.059927762 0.10786464
0.073640004 0.01653143 0.78900003 -0.059838146 0.06833446 0.066625178 0.11264598
0.076645717 0.01653143 0.78900003 -0.055559777 0.084132224 0.077250332 0.1270147
0.079550482 0.016510477 0.78800005 -0.041745506 0.088846236 0.07876128 0.12585579
0.082657151 0.01653143 0.78900003 -0.029333171 0.096792787 0.082028776 0.13022287
0.085662864 0.01653143 0.78900003 -0.01631717 0.098517746 0.07911557 0.12740201
0.088556193 0.016510477 0.78800005 0.032930255 0.12013541 0.082809448 0.14958049
0.091674291 0.01653143 0.78900003 0.046792053 0.13725121 0.09197554 0.17171748
0.10212 0.016280001 0.77700001 0.035931714 0.18152638 0.098951906 0.20984372
0.1057562 0.016384764 0.78200006 0.036865532 0.2065707 0.10558948 0.23490351
0.10901334 0.016426668 0.78400004 -0.0052577965 0.25940797 0.11210033 0.28264222
0.11200001 0.016426668 0.78400004 0.0055646524 0.27999309 0.11296964 0.30197555
0.11469334 0.016384764 0.78200006 0.01400483 0.28968987 0.11013091 0.31023407
0.11767239 0.016384764 0.78200006 0.036152914 0.29364541 0.10879037 0.31523007
0.11988001 0.016280001 0.77700001 0.040048789 0.23760554 0.094294459 0.25875035
0.12284001 0.016280001 0.77700001 0.076628275 0.2336314 0.085879058 0.26044333
0.12580001 0.016280001 0.77700001 0.099985406 0.25346342 0.079066604 0.28371167
0.12876001 0.016280001 0.77700001 0.13551934 0.31495786 0.067387521 0.34943527
0.13172001 0.016280001 0.77700001 0.16393903 0.36121202 0.056794375 0.40071899
0.014177144 0.020478096 0.82700002 0.15749632 0.22886063 0.094714046 0.29351836
0.01732762 0.020478096 0.82700002 0.034122702 0.11431631 0.086261243 0.14721949
0.020478096 0.020478096 0.82700002 -0.044908501 0.12428614 0.10100538 0.16633071
0.02357143 0.020428572 0.82500005 -0.0019587465 0.11617668 0.08789292 0.14569153
0.026714288 0.020428572 0.82500005 0.010513332 0.10532297 0.080026656 0.1326941
0.039095242 0.020329526 0.82100004 -0.066450112 0.45724368 0.15584716 0.48762253
0.042222861 0.020329526 0.82100004 -0.087597229 0.44194686 0.16344926 0.47927651
0.045350481 0.020329526 0.82100004 -0.064916596 0.49299571 0.15808409 0.52177536
0.048714288 0.020428572 0.82500005 -0.052629419 0.46298259 0.16215876 0.49337429
0.051982861 0.020478096 0.82700002 -0.051917441 0.48981595 0.16086608 0.51816308
0.055266671 0.02052762 0.82900006 -0.033349514 0.54131478 0.14694706 0.5618962
0.064786673 0.019586667 0.79100001 -0.13830665 0.74748784 -0.64835876 0.99911755
0.067800008 0.019586667 0.79100001 -0.044619221 -0.0075227022 -0.00083631277 0.045256663
0.070813335 0.019586667 0.79100001 -0.043213263 -0.00033780932 0.0067748129 0.043742411
0.074013337 0.019636191 0.79300004 -0.11014813 0.73690701 -0.66551799 0.99903888
0.080531433 0.02052762 0.82900006 -0.10400212 0.87446475 -0.28649908 0.92605984
0.083891436 0.020577144 0.83100003 -0.033729285 0.097735226 0.31838334 0.33475035
0.082657151 0.019537143 0.78900003 -0.031345733 0.035069913 0.037684083 0.060270589
0.085880004 0.019586667 0.79100001 -0.0082221366 0.025947571 0.027636439 0.038789853
0.088893339 0.019586667 0.79100001 0.043673575 0.047918588 0.037867159 0.075083248
0.092371434 0.019685715 0.79500002 0.068735279 0.0038766861 -0.0096616745 0.06951917
0.095160007 0.019636191 0.79300004 0.11368986 -0.70554256 0.69512248 0.99695086
0.10656763 0.019512381 0.78800005 0.04912303 0.14291263 0.090103447 0.17594239
0.10956953 0.019512381 0.78800005 0.03878779 0.15918803 0.093463331 0.18862851
0.11257143 0.019512381 0.78800005 0.029950252 0.21176222 0.11031851 0.24064586
0.11557334 0.019512381 0.78800005 0.033039957 0.23135775 0.11458817 0.26028541
0.11857525 0.019512381 0.78800005 0.087280408 0.25797197 0.11362967 0.29509169
0.12065144 0.019363811 0.78200006 0.057025678 0.2345961 0.10193548 0.26206505
0.1231562 0.019289525 0.77900004 0.078774266 0.21727017 0.090005666 0.24801759
0.12876001 0.019240001 0.77700001 0.13562745 0.24221694 0.07290265 0.28701681
0.0015904763 0.023857145 0.83500004 0.37596381 -0.53977334 0.64675665 0.92249566
0.011000001 0.02357143 0.82500005 0.15403572 0.23819281 0.10588807 0.30277896
0.014177144 0.023628574 0.82700002 0.2297525 -0.59779066 0.73470861 0.97464693
0.017285716 0.02357143 0.82500005 0.037924729 0.10838205 0.084887385 0.14279643
0.020428572 0.02357143 0.82500005 -0.026613526 0.11584803 0.098770201 0.15454644
0.023514288 0.023514288 0.82300001 0.0073310658 0.11938058 0.09460178 0.15249579
0.026649525 0.023514288 0.82300001 0.015117586 0.13001005 0.098916441 0.1640598
0.035967622 0.023457145 0.82100004 -0.0010060817 0.21528724 0.13942158 0.25649169
0.039095242 0.023457145 0.82100004 -0.051068462 0.30481508 0.16769439 0.35162711
0.042222861 0.023457145 0.82100004 -0.064824603 0.37556615 0.1724042 0.4183006
0.045350481 0.023457145 0.82100004 -0.035471674 0.42398396 0.17152372 0.45873851
0.048478097 0.023457145 0.82100004 -0.017348431 0.44516569 0.16983408 0.47677782
0.051982861 0.023628574 0.82700002 0.12671033 -0.31559479 0.80186117 0.87099767
0.064272389 0.023514288 0.82300001 -0.046713598 0.51026821 0.17152521 0.54034871
0.067243814 0.023457145 0.82100004 -0.061627086 0.54848105 0.15093169 0.57219732
0.070371434 0.023457145 0.82100004 -0.10331158 0.62678695 0.11245975 0.64512193
0.081308573 0.023914287 0.83700001 0.5495345 -0.30007887 0.22616459 0.66572213
0.084295243 0.023857145 0.83500004 0.31223178 -0.0085711777 0.28062972 0.41989902
0.087476194 0.023857145 0.83500004 0.19756941 0.034071386 0.27269688 0.33846435
0.086314291 0.022714287 0.79500002 -0.090247236 0.77099931 -0.62937808 0.99935043
0.089342862 0.022714287 0.79500002 0.048898574 -0.010381013 -0.023020983 0.055034548
0.092371434 0.022714287 0.79500002 0.13127212 -0.75086331 0.6425088 0.99691808
0.098040007 0.023342859 0.81700003 -0.10178812 0.6982435 0.036857307 0.70658559
0.10656191 0.023857145 0.83500004 -0.064727753 0.02201727 0.25560555 0.26459146
0.10656763 0.022514287 0.78800005 0.050109286 0.071084321 0.049842685 0.10024078
0.10970858 0.022542858 0.78900003 0.051463619 0.078409523 0.054339796 0.10839451
0.11271429 0.022542858 0.78900003 0.02012491 0.11947781 0.081615776 0.1460859
0.11557334 0.022514287 0.78800005 0.036237538 0.13894972 0.089335352 0.16911827
0.11872572 0.022542858 0.78900003 0.082191341 0.18104227 0.099493891 0.22233029
0.12126858 0.022457145 0.78600001 0.074609257 0.18528387 0.098145694 0.22255163
-0.0015904763 0.027038097 0.83500004 0.38050371 -0.62974834 0.60558629 0.95294321
0.0015904763 0.027038097 0.83500004 0.35655254 -0.61310494 0.63340831 0.95091194
0.0047942861 0.02716762 0.83900005 0.31408498 -0.65353018 0.63758922 0.9655419
0.011000001 0.026714288 0.82500005 0.2712355 -0.52788544 0.73698771 0.94624662
0.014142858 0.026714288 0.82500005 0.21128106 -0.6146431 0.7281689 0.9760409
0.017285716 0.026714288 0.82500005 0.15830411 -0.65851605 0.71820492 0.98717874
