# .PCD v0.7 - Point Cloud Data file format
VERSION 0.7
FIELDS x y z normal_x normal_y normal_z curvature
SIZE 4 4 4 4 4 4 4
TYPE F F F F F F F
COUNT 1 1 1 1 1 1 1
WIDTH 583
HEIGHT 1
VIEWPOINT 0 0 0 1 0 0 0
POINTS 583
DATA ascii
-0.39600003 0.23066668 0.70000005 0.027718944 0.092509449 -0.083430707 0.12762061
-0.39164764 0.22967811 0.69700003 -0.11522542 0.076517284 -0.098142117 0.16959855
-0.38787621 0.22901906 0.69500005 -0.18659213 0.063949376 -0.12902349 0.23569727
-0.38800001 0.23066668 0.70000005 -0.19306538 0.057546765 -0.12656629 0.23791783
-0.38808575 0.2323143 0.70500004 -0.17630444 0.070227683 -0.13266248 0.2315481
-0.38649336 0.23297335 0.70700002 -0.2246742 0.059469402 -0.16637658 0.28582561
-0.38380003 0.23297335 0.70700002 -0.23717642 0.059009343 -0.18107198 0.30417398
-0.38164574 0.23330288 0.708 -0.25491095 0.051076084 -0.19730078 0.32636783
-0.38001907 0.23396192 0.71000004 -0.28566948 0.034168094 -0.21931271 0.36176315
-0.3773143 0.23396192 0.71000004 -0.30876762 0.015797198 -0.23220089 0.38665777
-0.41576573 0.23700002 0.71100003 0.28817308 -0.020346433 -0.093011051 0.30349424
-0.40688574 0.23500001 0.70500004 0.25402933 0.04718408 -0.12623718 0.28756404
-0.39846671 0.23166668 0.69500005 0.10196032 0.069624126 -0.063651174 0.13890608
-0.39524955 0.23133335 0.69400001 0.017862245 0.070722312 -0.057853043 0.093100376
-0.39260575 0.23133335 0.69400001 -0.061821781 0.075875163 -0.075711399 0.12373839
-0.38996193 0.23133335 0.69400001 -0.13820994 0.06784001 -0.098503053 0.18277611
-0.38731813 0.23133335 0.69400001 -0.17769325 0.062236577 -0.1172826 0.2218186
-0.3852286 0.23166668 0.69500005 -0.20208392 0.057618171 -0.13135579 0.24781467
-0.3869848 0.23433335 0.70300001 -0.19636647 0.057121605 -0.12671763 0.24058267
-0.38540003 0.23500001 0.70500004 -0.22058603 0.057378024 -0.15150982 0.273689
-0.38380003 0.23566668 0.70700002 -0.24404269 0.061343908 -0.18249445 0.31084424
-0.38164574 0.23600002 0.708 -0.26746407 0.048764408 -0.20251216 0.33900765
-0.37355432 0.23600002 0.708 -0.29962978 0.019688994 -0.21675718 0.37033677
-0.40688574 0.23768573 0.70500004 0.26319569 0.032771766 -0.11558411 0.28931928
-0.39789337 0.23397715 0.69400001 0.095080063 0.059626311 -0.051512331 0.12348699
-0.39468002 0.23364002 0.69300002 0.017334627 0.061578989 -0.048363149 0.080196358
-0.39204001 0.23364002 0.69300002 -0.050561372 0.071464092 -0.067561597 0.11058091
-0.38940004 0.23364002 0.69300002 -0.12562877 0.061508209 -0.084949493 0.16365287
-0.38676003 0.23364002 0.69300002 -0.16552421 0.05852282 -0.10452682 0.20432582
-0.3852286 0.23431431 0.69500005 -0.1788597 0.058314025 -0.114142 0.22004481
-0.3842324 0.23532572 0.69800001 -0.20537224 0.056956083 -0.13349473 0.25148082
-0.3843067 0.23701145 0.70300001 -0.21894917 0.056842387 -0.14586431 0.2691583
-0.38217145 0.23734859 0.70400006 -0.2471965 0.049556494 -0.16612692 0.30192733
-0.3811067 0.23836002 0.70700002 -0.2834188 0.039984882 -0.20181315 0.35021931
-0.41494289 0.24037145 0.70500004 0.31434485 -0.033162951 -0.10318878 0.33250621
-0.41167241 0.2400305 0.70400006 0.30574447 -0.024346232 -0.098340482 0.32209203
-0.41073337 0.24105334 0.70700002 0.30795142 -0.023236841 -0.10191938 0.32521006
-0.39996004 0.23628001 0.69300002 0.1537703 0.036717713 -0.044807136 0.16432033
-0.39617336 0.23559812 0.69100004 0.065142155 0.045681387 -0.03440851 0.086684689
-0.39297146 0.23525716 0.69000006 0.0013769865 0.044733077 -0.033843249 0.056109801
-0.3909086 0.23559812 0.69100004 -0.061829407 0.053511918 -0.053049535 0.097471297
-0.38940004 0.23628001 0.69300002 -0.11487366 0.053636223 -0.072064728 0.1458291
-0.38676003 0.23628001 0.69300002 -0.15097822 0.056161821 -0.093146086 0.18607731
-0.38467431 0.23662096 0.69400001 -0.16974634 0.054734915 -0.10397923 0.20644954
-0.3842324 0.23798478 0.69800001 -0.1862393 0.053595304 -0.11444965 0.22506945
-0.38321337 0.23900764 0.70100003 -0.2119067 0.051440299 -0.13279444 0.25531337
-0.38054287 0.23900764 0.70100003 -0.24980547 0.043318361 -0.16107726 0.30037498
-0.37948954 0.2400305 0.70400006 -0.27779546 0.031780124 -0.18086898 0.33300734
-0.4125886 0.2416781 0.70100003 0.31292853 -0.038041979 -0.092557788 0.32853979
-0.40991813 0.2416781 0.70100003 0.30809689 -0.035511881 -0.087943137 0.32236436
-0.40376192 0.23960954 0.69500005 0.20066097 0.0037296116 -0.038535148 0.20436168
-0.39880574 0.2382305 0.69100004 0.12273985 0.024072051 -0.025249124 0.12760115
-0.39560002 0.23788573 0.69000006 0.063139752 0.031149954 -0.021845549 0.073716864
-0.39240193 0.23754098 0.68900001 -0.0045263879 0.036395609 -0.027401865 0.045781992
-0.39034289 0.23788573 0.69000006 -0.042168442 0.044218063 -0.039948195 0.073001869
-0.38827622 0.2382305 0.69100004 -0.10892026 0.048911333 -0.064988732 0.13593924
-0.38564384 0.2382305 0.69100004 -0.1548084 0.045674056 -0.085260898 0.18254089
-0.38412002 0.23892002 0.69300002 -0.17361669 0.044785559 -0.09616065 0.20345853
-0.38203049 0.23926477 0.69400001 -0.20831077 0.042010933 -0.1192311 0.24366853
-0.38157335 0.24064383 0.69800001 -0.2177635 0.042405725 -0.12787753 0.25607002
-0.38000003 0.24133335 0.70000005 -0.25379443 0.03392756 -0.15426213 0.29893059
-0.37787241 0.2416781 0.70100003 -0.28321138 0.028983057 -0.18452866 0.33926323
-0.37680763 0.24271239 0.70400006 -0.29633868 0.022955269 -0.19581416 0.35593084
-0.40905717 0.24225716 0.69500005 0.29371679 -0.050659239 -0.062949657 0.30462858
-0.40582478 0.24190858 0.69400001 0.25062138 -0.03483583 -0.039665014 0.25612092
-0.40260002 0.24156001 0.69300002 0.20375855 -0.0063636899 -0.030187517 0.20608088
-0.39822859 0.24051431 0.69000006 0.12188782 0.009468019 -0.013727069 0.12302323
-0.39502668 0.24016573 0.68900001 0.044464789 0.0098571181 -0.0051794648 0.045837834
-0.38977715 0.24016573 0.68900001 -0.052196931 0.027432054 -0.028296232 0.065404236
-0.38827622 0.24086288 0.69100004 -0.100621 0.036901981 -0.050845414 0.11862376
-0.38564384 0.24086288 0.69100004 -0.14271882 0.035621643 -0.069034368 0.16249095
-0.38412002 0.24156001 0.69300002 -0.1723977 0.040913433 -0.091475457 0.1994057
-0.38203049 0.24190858 0.69400001 -0.20314416 0.036829352 -0.1094918 0.23369297
-0.37993336 0.24225716 0.69500005 -0.22283961 0.035869241 -0.12516221 0.2580885
-0.3789143 0.24330287 0.69800001 -0.25894186 0.027549297 -0.15244898 0.30174583
-0.37787241 0.24434859 0.70100003 -0.28402567 0.023701996 -0.17871672 0.33641052
-0.35232383 0.24330287 0.69800001 0.073711798 0.10603413 -0.10745525 0.16799791
-0.4084686 0.2445524 0.69400001 0.28419784 -0.052693143 -0.053065389 0.29387227
-0.40582478 0.2445524 0.69400001 0.25884289 -0.042161956 -0.038772762 0.26510489
-0.40260002 0.24420002 0.69300002 0.21935792 -0.025753379 -0.023518354 0.22211313
-0.39822859 0.24314287 0.69000006 0.12224138 -0.013568848 0.0017741919 0.12300494
-0.39502668 0.24279049 0.68900001 0.04578682 -0.011911035 0.0092942417 0.048215024
-0.38977715 0.24279049 0.68900001 -0.045377802 -0.0015340447 -0.0055573583 0.045742568
-0.3877143 0.24314287 0.69000006 -0.095817029 0.017685741 -0.03327471 0.10296065
-0.38508573 0.24314287 0.69000006 -0.13615404 0.022092372 -0.053925484 0.14810117
-0.38301146 0.24349526 0.69100004 -0.17464645 0.027381241 -0.080029368 0.19405106
-0.38148004 0.24420002 0.69300002 -0.19959451 0.029004455 -0.098893702 0.22463124
-0.37938669 0.2445524 0.69400001 -0.22270544 0.02835691 -0.11708957 0.25320306
-0.37728575 0.24490477 0.69500005 -0.25866896 0.025065094 -0.14923054 0.29967925
-0.37733337 0.24666668 0.70000005 -0.25695562 0.03575173 -0.16022226 0.30491894
-0.35232383 0.24596192 0.69800001 -0.015276976 0.053015828 -0.037600458 0.066767201
-0.32856002 0.23468573 0.66600001 -0.032929242 0.045627058 -0.073658839 0.092691898
-0.32553336 0.23433335 0.66500002 -0.057337258 0.043008715 -0.058814436 0.092717037
-0.40788004 0.24684002 0.69300002 0.2828787 -0.055150241 -0.047898769 0.29215786
-0.4040705 0.24612764 0.69100004 0.24916913 -0.047145322 -0.026788175 0.25500107
-0.40027621 0.24541526 0.68900001 0.15746176 -0.03670615 0.0071135759 0.16183989
-0.39765146 0.24541526 0.68900001 0.095211327 -0.034061983 0.018640786 0.10282458
-0.39388004 0.24470288 0.68700004 0.033947945 -0.034500822 0.022760779 0.05348666
-0.38808003 0.24434668 0.68600005 -0.054187469 -0.02623114 0.0083423257 0.060777865
-0.38434288 0.2436343 0.68400002 -0.14540346 -0.026351035 -0.022771388 0.14951615
-0.38341147 0.24470288 0.68700004 -0.16044159 -0.011981308 -0.040006489 0.16578774
-0.38245717 0.24577144 0.69000006 -0.18164162 -0.0060373843 -0.056513995 0.19032593
-0.38148004 0.24684002 0.69300002 -0.18900895 0.012576312 -0.076313078 0.20422104
-0.37884003 0.24684002 0.69300002 -0.21832909 0.018891394 -0.10395071 0.24254942
-0.37674287 0.24719621 0.69400001 -0.23682733 0.028502822 -0.13026425 0.27178738
-0.37463811 0.24755239 0.69500005 -0.19913098 0.051925272 -0.12631854 0.24146585
-0.3719905 0.24755239 0.69500005 -0.12258116 0.075847983 -0.10279971 0.17705038
-0.35764194 0.24862097 0.69800001 -0.022682056 0.033095807 -0.021127939 0.045345318
-0.35447431 0.24826477 0.69700003 -0.052820925 0.035611153 -0.018592298 0.066361718
-0.32708001 0.2361543 0.66300005 -0.044580735 0.029300958 -0.032843173 0.062647127
-0.32455429 0.2361543 0.66300005 -0.053240433 0.031023383 -0.035008892 0.070870422
-0.40611431 0.24840002 0.69000006 0.26671937 -0.066464022 -0.0278759 0.27628565
-0.40348575 0.24840002 0.69000006 0.23999861 -0.062608823 -0.011980236 0.2483198
-0.39911431 0.24732001 0.68700004 0.13002136 -0.06211789 0.02734375 0.14666924
-0.39649716 0.24732001 0.68700004 0.071455747 -0.055084303 0.032296479 0.095829368
-0.39388004 0.24732001 0.68700004 0.023443669 -0.04817678 0.02992475 0.061368544
-0.39069337 0.24696001 0.68600005 -0.021588121 -0.041180342 0.022535801 0.051669426
-0.38694859 0.24624002 0.68400002 -0.077927507 -0.040357813 0.010742158 0.088412918
-0.38434288 0.24624002 0.68400002 -0.12939596 -0.041347265 -0.0065617263 0.13599989
-0.38173717 0.24624002 0.68400002 -0.1580856 -0.036050215 -0.022817105 0.16374154
-0.38079432 0.24732001 0.68700004 -0.17174865 -0.023308635 -0.038308591 0.17750616
-0.38037908 0.24876001 0.69100004 -0.18366247 -0.010137022 -0.054673761 0.1918955
-0.37884003 0.24948001 0.69300002 -0.21471755 -0.00090181828 -0.083349466 0.23032928
-0.37674287 0.24984002 0.69400001 -0.23253886 0.0039441586 -0.10207972 0.25398847
-0.37409908 0.24984002 0.69400001 -0.17057356 0.041234821 -0.095985025 0.20002194
-0.3719905 0.2502 0.69500005 -0.12528807 0.080487758 -0.10964146 0.18492331
-0.3555924 0.24984002 0.69400001 -0.15269674 0.01652354 0.022281557 0.15519598
-0.35244003 0.24948001 0.69300002 -0.20362842 0.076671898 0.016829729 0.21823463
-0.32612574 0.23616001 0.65600002 -0.00068823993 0.027588576 -0.031205744 0.041658152
-0.32313335 0.23580001 0.65500003 0.020398833 0.033167958 -0.039864123 0.055725884
-0.31965905 0.23508002 0.65300006 0.026130501 0.050947309 -0.055890203 0.080013409
-0.40552574 0.25066477 0.68900001 0.23514265 -0.084201321 -0.0016273856 0.24976905
-0.40290096 0.25066477 0.68900001 0.20356861 -0.079503596 0.012900233 0.21892332
-0.39911431 0.24993716 0.68700004 0.13123119 -0.063088402 0.0275608 0.14819369
-0.39649716 0.24993716 0.68700004 0.066792585 -0.062053308 0.0360488 0.098037638
-0.39216003 0.24884573 0.68400002 0.0285399 -0.05382131 0.032933295 0.069252156
-0.3889848 0.24848191 0.68300003 -0.022583008 -0.053425059 0.028835475 0.064774327
-0.38638288 0.24848191 0.68300003 -0.070774592 -0.044303149 0.014788926 0.084796958
-0.38378099 0.24848191 0.68300003 -0.11953533 -0.038987175 -0.0040067732 0.12579645
-0.38173717 0.24884573 0.68400002 -0.14517942 -0.032181412 -0.018979162 0.14990969
-0.38079432 0.24993716 0.68700004 -0.16529796 -0.026504099 -0.032647312 0.17056297
-0.37927812 0.25066477 0.68900001 -0.17918801 -0.025207013 -0.040911913 0.18551959
-0.3777467 0.25139239 0.69100004 -0.20005868 -0.010790288 -0.067911983 0.21154656
-0.37620002 0.25212002 0.69300002 -0.21942139 -0.00505355 -0.087057292 0.23611492
-0.37409908 0.25248381 0.69400001 -0.2051959 0.015120327 -0.096412688 0.22722101
-0.37092003 0.25212002 0.69300002 -0.10218622 0.063920826 -0.082358867 0.14598246
-0.36881146 0.25248381 0.69400001 -0.053470585 0.086144537 -0.085542977 0.13265589
-0.35405526 0.25139239 0.69100004 -0.20703524 0.065233201 0.028673619 0.21895465
-0.33108002 0.23684001 0.65100002 0.031801723 0.017625093 -0.025378913 0.044340532
-0.32960954 0.23756763 0.65300006 0.028260734 0.021318048 -0.028294891 0.045318089
-0.32712191 0.23756763 0.65300006 0.021322552 0.025651425 -0.030925751 0.045486797
-0.32562858 0.23829526 0.65500003 0.021766998 0.026898623 -0.03249836 0.047470849
-0.32214668 0.23756763 0.65300006 0.035731073 0.04209584 -0.047287524 0.072697178
-0.31965905 0.23756763 0.65300006 0.032368276 0.043647528 -0.048547983 0.072867818
-0.31668574 0.23720382 0.65200001 0.030042928 0.043324649 -0.047863126 0.071207315
-0.40552574 0.25328955 0.68900001 0.23648626 -0.093422771 0.0026582778 0.25428456
-0.40173146 0.2525543 0.68700004 0.19374309 -0.086569667 0.019669741 0.21311404
-0.39853337 0.25218669 0.68600005 0.12376858 -0.071747303 0.03321892 0.14686672
-0.39592004 0.25218669 0.68600005 0.065828063 -0.062864721 0.036507905 0.098072089
-0.38638288 0.25108382 0.68300003 -0.065069497 -0.047530949 0.017939955 0.082553454
-0.38434288 0.25145143 0.68400002 -0.091241039 -0.041190937 0.0071827173 0.1003654
-0.38117906 0.25108382 0.68300003 -0.13673538 -0.03833726 -0.015197784 0.14281905
-0.37913147 0.25145143 0.68400002 -0.18032146 -0.041564509 -0.026539356 0.18694325
-0.37817717 0.2525543 0.68700004 -0.18055126 -0.028773591 -0.044822395 0.18824378
-0.37720004 0.25365716 0.69000006 -0.19471008 -0.024615496 -0.056854039 0.20432895
-0.37511432 0.25402477 0.69100004 -0.2171317 -0.023158133 -0.074340671 0.23067079
-0.37356001 0.25476003 0.69300002 -0.16799119 0.0044292212 -0.063639373 0.17969593
-0.37092003 0.25476003 0.69300002 -0.095943928 0.029978961 -0.048554391 0.11163111
-0.36828002 0.25476003 0.69300002 -0.068845972 0.064499527 -0.065981328 0.11512382
-0.33304763 0.2389524 0.65000004 0.065618545 0.01261127 -0.030406475 0.073412478
-0.33057144 0.2389524 0.65000004 0.037024409 0.014148116 -0.022137851 0.045398902
-0.32860002 0.23932001 0.65100002 0.029696226 0.018615305 -0.024583101 0.042810328
-0.32612002 0.23932001 0.65100002 0.044376601 0.03270486 -0.038564265 0.067276247
-0.32413715 0.23968764 0.65200001 0.041345492 0.036259353 -0.041729242 0.069032744
-0.32165337 0.23968764 0.65200001 0.035938922 0.035581112 -0.039842814 0.064382225
-0.31819049 0.2389524 0.65000004 0.033258092 0.033549368 -0.037392795 0.060248502
-0.31620002 0.23932001 0.65100002 0.026127242 0.034505963 -0.037233263 0.057092994
-0.31323811 0.2389524 0.65000004 0.019434441 0.028283864 -0.029645771 0.045349158
-0.40434861 0.25517145 0.68700004 0.21028008 -0.096772969 0.016406924 0.23206012
-0.40173146 0.25517145 0.68700004 0.18445112 -0.096121147 0.027406931 0.20979187
-0.38378099 0.25368574 0.68300003 -0.079093546 -0.044733763 0.011470973 0.091588654
-0.38117906 0.25368574 0.68300003 -0.11965287 -0.043985039 -0.0044029057 0.12755735
-0.37913147 0.25405717 0.68400002 -0.16626805 -0.046029687 -0.016508251 0.17330989
-0.37817717 0.25517145 0.68700004 -0.16083604 -0.039207712 -0.026695877 0.16768466
-0.37665334 0.2559143 0.68900001 -0.2010754 -0.041767254 -0.04968825 0.21129303
-0.37511432 0.25665715 0.69100004 -0.23937938 -0.049910232 -0.077317894 0.25645968
-0.33397526 0.2403143 0.64700001 0.08573731 -0.01537621 -0.0062535405 0.08732938
-0.33202288 0.24068573 0.648 0.081965677 0.0015425682 -0.020946831 0.084613957
-0.33057144 0.24142858 0.65000004 0.057920791 -0.001298964 -0.012004465 0.059165977
-0.32860002 0.24180001 0.65100002 0.039464682 0.0081801414 -0.016043872 0.043379508
-0.32561907 0.24142858 0.65000004 0.045833953 0.02765137 -0.03369081 0.063248873
-0.32364002 0.24180001 0.65100002 0.047060888 0.026839644 -0.033214599 0.063547648
-0.31968004 0.24068573 0.648 0.033672687 0.020888597 -0.024548352 0.046613354
-0.31721145 0.24068573 0.648 0.025017999 0.020902604 -0.022879362 0.039828185
-0.30638859 0.23994288 0.64600003 -0.039892789 0.0025886595 -0.0006275773 0.039981615
-0.30392763 0.23994288 0.64600003 -0.073324233 0.0019457936 -0.0021657944 0.073382013
-0.30100003 0.23957144 0.64500004 -0.11451544 -0.0038753748 -0.0044262111 0.11466645
-0.40173146 0.2577886 0.68700004 0.18577808 -0.093913972 0.026093692 0.20979564
-0.37927812 0.25853905 0.68900001 -0.15013625 -0.046624869 -0.01675579 0.15809974
-0.33800003 0.24390478 0.65000004 0.087699465 -0.060684323 0.029972017 0.11077953
-0.33552384 0.24390478 0.65000004 0.087810025 -0.027940214 0.0010927618 0.092154488
-0.33304763 0.24390478 0.65000004 0.075235128 -0.021120191 0.00031107664 0.078143992
-0.32955432 0.2431543 0.648 0.085156173 0.0014296472 -0.018648982 0.087186024
-0.32658097 0.24277906 0.64700001 0.054266565 0.0023275912 -0.011033416 0.055425752
-0.3241162 0.24277906 0.64700001 0.053587679 0.0039963722 -0.012667835 0.055209458
-0.32214859 0.2431543 0.648 0.046056271 0.0079988241 -0.014833152 0.049042672
-0.31968004 0.2431543 0.648 0.035090063 0.0038001835 -0.0087728798 0.036369182
-0.30591431 0.24202859 0.64500004 -0.059234697 -0.00078594685 0.001811415 0.059267599
-0.30392763 0.24240382 0.64600003 -0.097713649 -9.1791153e-05 -0.003180176 0.097765431
-0.39245716 0.25775239 0.68000001 0.073258519 -0.087340996 0.046989828 0.12330168
-0.38986668 0.25775239 0.68000001 0.032897018 -0.075664848 0.043319196 0.093187638
-0.38670668 0.25737336 0.67900002 0.0093979798 -0.066912755 0.038259089 0.077649191
-0.38412002 0.25737336 0.67900002 -0.019636501 -0.058714733 0.030558079 0.069042079
-0.33696002 0.24562287 0.648 0.092301823 -0.071457267 0.03737095 0.12256572
-0.33397526 0.24524383 0.64700001 0.083443046 -0.051472664 0.025694221 0.1013527
-0.33151048 0.24524383 0.64700001 0.085109755 -0.034521908 0.012061357 0.092633195
-0.32853717 0.24486478 0.64600003 0.083364315 -0.024932027 0.0054353476 0.087182328
-0.32607621 0.24486478 0.64600003 0.066314533 -0.018846244 0.0048495233 0.069110893
-0.32361525 0.24486478 0.64600003 0.056290064 -0.011958688 0.0012394786 0.057559691
-0.32065716 0.24448574 0.64500004 0.042022306 -0.016950816 0.0082095265 0.046049982
-0.31820002 0.24448574 0.64500004 0.02942038 -0.009837687 0.0044422448 0.031338032
-0.30837145 0.24448574 0.64500004 -0.048717346 -0.00035732985 0.0022649467 0.048771281
-0.30449146 0.24334858 0.64200002 -0.090097785 0.0042326748 -0.0056323409 0.090372831
-0.40140575 0.26110858 0.68200004 0.16834979 -0.11259887 0.037394077 0.20595746
-0.39880764 0.26110858 0.68200004 0.14859352 -0.11620295 0.045407921 0.1940233
-0.39620954 0.26110858 0.68200004 0.11370535 -0.10571884 0.049327314 0.1629066
-0.39245716 0.26034287 0.68000001 0.078062072 -0.10247722 0.052571088 0.13913658
-0.38986668 0.26034287 0.68000001 0.055234965 -0.088992387 0.049437463 0.11582145
-0.38670668 0.25996003 0.67900002 0.023897631 -0.076494411 0.043655396 0.091259435
-0.38412002 0.25996003 0.67900002 0.0020206124 -0.067386836 0.037472278 0.077131316
-0.38153335 0.25996003 0.67900002 -0.065220892 -0.06506829 0.026219249 0.095786721
-0.33696002 0.24809144 0.648 0.091173217 -0.073578328 0.039570957 0.12366158
-0.33397526 0.24770859 0.64700001 0.091614291 -0.063845515 0.032885432 0.11640825
-0.33099812 0.24732573 0.64600003 0.08909943 -0.039830297 0.016133308 0.098921403
-0.32802859 0.24694288 0.64500004 0.080170743 -0.035938948 0.015497237 0.0892139
-0.32557145 0.24694288 0.64500004 0.073598616 -0.034111172 0.015519291 0.082590416
-0.32311431 0.24694288 0.64500004 0.06094642 -0.029464334 0.01473549 0.069280215
-0.32016003 0.24656002 0.64400005 0.043882128 -0.021408886 0.011807114 0.050233349
-0.31820002 0.24694288 0.64500004 0.032468602 -0.017685801 0.010653257 0.03847713
-0.31034669 0.24656002 0.64400005 -0.0427141 7.9751015e-05 0.0021065176 0.042766087
-0.30693716 0.2457943 0.64200002 -0.068475232 0.0047663748 -0.0030516684 0.068708718
-0.30401716 0.24541144 0.64100003 -0.10166914 0.0038251579 -0.006604135 0.10195519
-0.30157524 0.24541144 0.64100003 -0.12282893 0.010031909 -0.017213017 0.12443421
-0.40140575 0.26370668 0.68200004 0.15283099 -0.11496273 0.042600513 0.19592994
-0.39880764 0.26370668 0.68200004 0.14384747 -0.11723487 0.046901911 0.19140506
-0.39504763 0.26293334 0.68000001 0.10674085 -0.11279276 0.053643674 0.16429687
-0.39188004 0.26254669 0.67900002 0.085334525 -0.10584232 0.054325193 0.14640972
-0.38929337 0.26254669 0.67900002 0.064102352 -0.098557144 0.053119391 0.12901276
-0.38670668 0.26254669 0.67900002 0.052254356 -0.090372056 0.050433666 0.11593611
-0.38468572 0.26293334 0.68000001 0.027047195 -0.081335828 0.045715004 0.097143859
-0.38434288 0.26448002 0.68400002 0.0061780065 -0.066563502 0.037593037 0.076694876
-0.38173717 0.26448002 0.68400002 -0.023334105 -0.060702801 0.030117631 0.071668558
-0.33838096 0.24978669 0.64600003 0.087431163 -0.063744515 0.033295065 0.11320836
-0.33540002 0.24940002 0.64500004 0.090829253 -0.051128954 0.023250818 0.1067929
-0.33294287 0.24940002 0.64500004 0.094891712 -0.043474048 0.01700443 0.10575245
-0.33048573 0.24940002 0.64500004 0.090208113 -0.040157735 0.016029269 0.10003542
-0.32752001 0.24901335 0.64400005 0.081067033 -0.036982059 0.016320169 0.090586334
-0.32405716 0.24824001 0.64200002 0.067364857 -0.033390284 0.016932398 0.077069066
-0.32161146 0.24824001 0.64200002 0.059401155 -0.031082064 0.01660341 0.069067106
-0.3186686 0.24785335 0.64100003 0.035293672 -0.023738027 0.015539736 0.045283776
-0.31672001 0.24824001 0.64200002 0.028991912 -0.020380497 0.013607681 0.037961356
-0.30841908 0.24746668 0.64000005 -0.049013469 7.8231096e-05 0.0019278526 0.049051434
-0.30598098 0.24746668 0.64000005 -0.079785913 0.0038134158 -0.0032376349 0.079942584
-0.30354288 0.24746668 0.64000005 -0.094943091 0.0088551342 -0.0098518133 0.095862724
-0.30157524 0.24785335 0.64100003 -0.11384279 0.013291538 -0.017981201 0.11601797
-0.39905146 0.26474288 0.67800003 0.14543086 -0.11900243 0.048321009 0.19402741
-0.3993924 0.26669526 0.68300003 0.12963329 -0.11865668 0.049194992 0.18249477
-0.3967905 0.26669526 0.68300003 0.11669572 -0.12268977 0.054023981 0.17773369
-0.39188004 0.26513335 0.67900002 0.094243735 -0.11470251 0.057258934 0.15911359
-0.38872004 0.26474288 0.67800003 0.073065914 -0.10451634 0.055601418 0.13911797
-0.38613716 0.26474288 0.67800003 0.05254852 -0.10297929 0.055069149 0.12805738
-0.38412002 0.26513335 0.67900002 0.032589562 -0.097334549 0.052345872 0.11522232
-0.38209528 0.26552382 0.68000001 0.012295291 -0.08356075 0.045316935 0.095849872
-0.37894669 0.26513335 0.67900002 -0.064386219 -0.085578755 0.038738608 0.11388586
-0.37580574 0.26474288 0.67800003 -0.13723388 -0.066714481 0.015684485 0.1533948
-0.3389048 0.2526381 0.64700001 0.030696101 -0.085194379 0.0704768 0.11474891
-0.33540002 0.25185716 0.64500004 0.087711275 -0.048360795 0.022513986 0.10265921
-0.33139431 0.25068572 0.64200002 0.088916041 -0.040589929 0.016731113 0.09916418
-0.32894859 0.25068572 0.64200002 0.085843317 -0.041796058 0.018603772 0.097273253
-0.32650289 0.25068572 0.64200002 0.079568535 -0.040055096 0.019083321 0.091102883
-0.3235524 0.25029525 0.64100003 0.06596186 -0.036075413 0.019603282 0.077696145
-0.32060954 0.24990478 0.64000005 0.056963481 -0.033723056 0.019577831 0.069031686
-0.31817144 0.24990478 0.64000005 0.035312723 -0.026250541 0.017642826 0.047406208
-0.31573334 0.24990478 0.64000005 0.02235312 -0.019700885 0.014190942 0.03300257
-0.31037146 0.2495143 0.63900006 -0.032937385 -0.0055828393 0.0065867007 0.034050316
-0.30793718 0.2495143 0.63900006 -0.057415754 -0.00051689148 0.0020408332 0.057454336
-0.30550289 0.2495143 0.63900006 -0.075926922 0.008531332 -0.006936878 0.076718979
-0.30354288 0.24990478 0.64000005 -0.093167722 0.0092609525 -0.0098255873 0.094141021
-0.30157524 0.25029525 0.64100003 -0.11012715 0.010799199 -0.014586508 0.11161263
-0.29913336 0.25029525 0.64100003 -0.12871206 0.019935459 -0.028253794 0.133276
-0.29715431 0.25068572 0.64200002 -0.15413015 0.023777217 -0.040304363 0.16107731
-0.39130288 0.26732573 0.67800003 0.096483551 -0.11991461 0.059526682 0.16502126
-0.38757336 0.26653716 0.67600006 0.075581662 -0.12681386 0.06277138 0.16042003
-0.38499811 0.26653716 0.67600006 0.057145566 -0.12071349 0.061218023 0.14691837
-0.38242289 0.26653716 0.67600006 -0.0024225134 -0.10953631 0.055696934 0.12290736
-0.38153335 0.26772001 0.67900002 0.012473995 -0.091715366 0.048924416 0.10469435
-0.37894669 0.26772001 0.67900002 -0.034947347 -0.083052531 0.041789889 0.099324897
-0.37636003 0.26772001 0.67900002 -0.06240695 -0.073190689 0.031782717 0.10129978
-0.3429524 0.25628573 0.65000004 -0.063856721 -0.10066867 0.14149509 0.18502088
-0.33785716 0.2543143 0.64500004 0.063782729 -0.047829121 0.028063238 0.084518671
-0.33488002 0.25392002 0.64400005 0.085363515 -0.037461966 0.015193999 0.094452031
-0.33036193 0.25234288 0.64000005 0.079012088 -0.035962135 0.016070426 0.088286147
-0.32792383 0.25234288 0.64000005 0.083163396 -0.045466423 0.022151023 0.097334549
-0.32497716 0.2519486 0.63900006 0.069181897 -0.041661829 0.023063242 0.08398664
-0.32254288 0.2519486 0.63900006 0.065606743 -0.037704915 0.020935088 0.078512311
-0.32010859 0.2519486 0.63900006 0.05770757 -0.035482228 0.021051884 0.070938945
-0.31717718 0.25155431 0.63800001 0.038811538 -0.02508086 0.016121179 0.048941571
-0.31474668 0.25155431 0.63800001 0.017264046 -0.021010399 0.016038179 0.031570669
-0.3089143 0.25076574 0.63600004 -0.037945051 -0.00021064281 0.0018867552 0.037992515
-0.30745527 0.25155431 0.63800001 -0.057094362 0.0051098764 -0.0030638576 0.057404391
-0.30502477 0.25155431 0.63800001 -0.068918556 0.0074914694 -0.0055842102 0.069549069
-0.30306858 0.2519486 0.63900006 -0.087163262 0.011797369 -0.011145532 0.08866135
-0.30110478 0.25234288 0.64000005 -0.10354953 0.015915841 -0.017794222 0.10626595
-0.29960001 0.25313145 0.64200002 -0.12329492 0.021197975 -0.027654737 0.12812407
-0.29715431 0.25313145 0.64200002 -0.14233738 0.026259989 -0.038722903 0.14982983
-0.2956267 0.25392002 0.64400005 -0.16619578 0.031064749 -0.052751333 0.17711228
-0.29317334 0.25392002 0.64400005 -0.20114468 0.042311907 -0.085129976 0.2224783
-0.39130288 0.26990858 0.67800003 0.081293643 -0.11932562 0.057837009 0.15553899
-0.38757336 0.26911241 0.67600006 0.067950569 -0.12764163 0.061135143 0.15699418
-0.38499811 0.26911241 0.67600006 0.067519709 -0.12039353 0.059603691 0.1503533
-0.38355431 0.26990858 0.67800003 0.058930755 -0.11082381 0.056955695 0.13783577
-0.38097146 0.26990858 0.67800003 0.030044325 -0.096004337 0.050327808 0.11248281
-0.37838858 0.26990858 0.67800003 -0.0067694988 -0.098958924 0.04973346 0.11095995
-0.37636003 0.27030668 0.67900002 -0.025951449 -0.085188627 0.042573363 0.098706998
-0.37377337 0.27030668 0.67900002 -0.04016567 -0.075095773 0.034971893 0.092063509
-0.34189716 0.25796574 0.648 -0.077766836 -0.078917176 0.11968493 0.16309533
-0.33785716 0.25677145 0.64500004 0.046677627 -0.042426318 0.027822584 0.068941198
-0.33280003 0.25478098 0.64000005 0.073603421 -0.01919964 0.0039179921 0.076167189
-0.32932955 0.25398478 0.63800001 0.072193533 -0.030903429 0.013948441 0.079758927
-0.32689908 0.25398478 0.63800001 0.069059908 -0.035012484 0.018058807 0.079506382
-0.32446858 0.25398478 0.63800001 0.066865124 -0.036502391 0.019702613 0.078686483
-0.32203811 0.25398478 0.63800001 0.069906801 -0.038954556 0.020820528 0.082691669
-0.32010859 0.25438288 0.63900006 0.061835103 -0.033644438 0.018684506 0.072832957
-0.31618288 0.25318858 0.63600004 0.0291894 -0.020532638 0.014231086 0.038420491
-0.3089143 0.25318858 0.63600004 -0.032978203 -0.0011738241 0.0026451945 0.033104934
-0.30600953 0.25279048 0.63500005 -0.065745711 0.0083639324 -0.0067481101 0.066618249
-0.30311239 0.25239241 0.634 -0.083645836 0.011036187 -0.010417372 0.085011438
-0.30117145 0.25279048 0.63500005 -0.094945669 0.018200755 -0.018183738 0.098369688
-0.30016384 0.25398478 0.63800001 -0.1001015 0.018320084 -0.019457549 0.10360759
-0.29913336 0.25517908 0.64100003 -0.11851327 0.022742301 -0.027680933 0.1238097
-0.29715431 0.25557715 0.64200002 -0.13377523 0.030583113 -0.040735036 0.14314498
-0.2956267 0.25637335 0.64400005 -0.1677635 0.038629383 -0.061983675 0.18297212
-0.29317334 0.25637335 0.64400005 -0.19107229 0.050311476 -0.089894056 0.21707328
-0.29072002 0.25637335 0.64400005 -0.22275054 0.063899219 -0.13430862 0.26784271
-0.39808002 0.27008003 0.67200005 0.10085875 -0.13628647 0.048912615 0.17646226
-0.39905146 0.27249146 0.67800003 0.10183126 -0.12250258 0.048132837 0.1664129
-0.39646861 0.27249146 0.67800003 0.094125733 -0.14157674 0.056448847 0.1791371
-0.3944667 0.27289334 0.67900002 0.089351907 -0.14362189 0.058786333 0.17907217
-0.39130288 0.27249146 0.67800003 0.080629833 -0.15435594 0.062855095 0.18514235
-0.38757336 0.27168763 0.67600006 0.085414782 -0.14879613 0.063265741 0.18286204
-0.38499811 0.27168763 0.67600006 0.07569737 -0.12350945 0.05771172 0.15593371
-0.38355431 0.27249146 0.67800003 0.076243952 -0.1190878 0.057413161 0.15261492
-0.38097146 0.27249146 0.67800003 0.044251189 -0.11444484 0.054550767 0.13428169
-0.37838858 0.27249146 0.67800003 0.0074127819 -0.1024524 0.049826115 0.11416692
-0.37469718 0.27168763 0.67600006 -0.11640526 -0.14001681 0.076825768 0.19762866
-0.37322289 0.27249146 0.67800003 -0.025622187 -0.12035684 0.056280464 0.13531356
-0.37064001 0.27249146 0.67800003 -0.20022826 -0.090375468 0.061494827 0.22812429
-0.33785716 0.25922859 0.64500004 0.018031687 -0.036459476 0.031082749 0.051191527
-0.33280003 0.25721908 0.64000005 0.072027698 -0.012917548 -0.001126796 0.073185533
-0.32932955 0.25641525 0.63800001 0.064452298 -0.017251015 0.0047260523 0.066888206
-0.3258743 0.25561145 0.63600004 0.060002901 -0.01903078 0.0072861016 0.063368812
-0.32345146 0.25561145 0.63600004 0.068391308 -0.030518204 0.01463148 0.076307356
-0.32102859 0.25561145 0.63600004 0.068138979 -0.033669472 0.017180055 0.077921167
-0.31860572 0.25561145 0.63600004 0.054163836 -0.029657423 0.017252862 0.064116649
-0.31618288 0.25561145 0.63600004 0.028821368 -0.019904852 0.013923794 0.037692789
-0.3089143 0.25561145 0.63600004 -0.042736128 0.0071590543 -0.005007863 0.043620035
-0.30600953 0.25520954 0.63500005 -0.065506682 0.013575941 -0.011774302 0.067926913
-0.30311239 0.25480762 0.634 -0.080184624 0.017142206 -0.016063601 0.083555184
-0.30022287 0.25440574 0.63300002 -0.093420155 0.026686192 -0.026278555 0.10064811
-0.2987524 0.25520954 0.63500005 -0.092748106 0.028310537 -0.02808243 0.10095702
-0.29773337 0.25641525 0.63800001 -0.10410999 0.030812085 -0.033003807 0.11347919
-0.29669145 0.25762096 0.64100003 -0.11910638 0.033254266 -0.039255977 0.12974286
-0.29470858 0.25802287 0.64200002 -0.15330566 0.049300849 -0.06914413 0.17525442
-0.29226288 0.25802287 0.64200002 -0.17257281 0.06595403 -0.10160026 0.21084099
-0.29072002 0.25882667 0.64400005 -0.21877848 0.082505584 -0.16246633 0.28472179
-0.39964002 0.27548003 0.67900002 0.097692639 -0.12457442 0.046186864 0.16491169
-0.3944667 0.27548003 0.67900002 0.071873859 -0.1414749 0.056887835 0.16857409
-0.39130288 0.2750743 0.67800003 0.078458399 -0.14705119 0.058151811 0.17652592
-0.38757336 0.27426288 0.67600006 0.093775474 -0.14121486 0.057709157 0.17906933
-0.38499811 0.27426288 0.67600006 0.091863066 -0.14375991 0.059856623 0.18079974
-0.38242289 0.27426288 0.67600006 0.091436073 -0.14553139 0.060807794 0.18231161
-0.38097146 0.2750743 0.67800003 0.075507946 -0.12114497 0.056392401 0.15348503
-0.3772724 0.27426288 0.67600006 0.031381141 -0.16027139 0.062866807 0.17499694
-0.37469718 0.27426288 0.67600006 -0.053187724 -0.17452574 0.081383705 0.19977856
-0.37212193 0.27426288 0.67600006 -0.14825948 -0.17172106 0.10724142 0.25093767
-0.37064001 0.2750743 0.67800003 -0.16479602 -0.12774481 0.080386102 0.22346899
-0.33576193 0.26006287 0.64100003 0.067824632 0.0041465759 -0.015840739 0.069773234
-0.33228001 0.25925145 0.63900006 0.069404602 -0.0022676587 -0.010020465 0.070160888
-0.32829717 0.25803429 0.63600004 0.058759704 -0.010614753 0.00035238266 0.059711806
-0.32689908 0.25884572 0.63800001 0.06112963 -0.013613045 0.0023778081 0.062672168
-0.32345146 0.25803429 0.63600004 0.060006909 -0.020055354 0.0081290603 0.063789718
-0.32102859 0.25803429 0.63600004 0.06220936 -0.023941725 0.010831565 0.06753172
-0.31810477 0.25762859 0.63500005 0.050332934 -0.025330126 0.014598906 0.058207795
-0.30794287 0.25722286 0.634 -0.052260734 0.014817894 -0.012698323 0.055785317
-0.30504572 0.25681716 0.63300002 -0.071584336 0.022381902 -0.0208776 0.077853329
-0.3026343 0.25681716 0.63300002 -0.079488866 0.025398493 -0.024391353 0.08693964
-0.2997486 0.25641143 0.63200003 -0.086563841 0.035196245 -0.034384012 0.099570751
-0.29734096 0.25641143 0.63200003 -0.082606748 0.040688783 -0.039686859 0.10027213
-0.29446667 0.25600573 0.63100004 -0.083844304 0.047850788 -0.048590869 0.108077
-0.29715431 0.2604686 0.64200002 -0.12858249 0.04415077 -0.053616941 0.14614214
-0.29424953 0.26006287 0.64100003 -0.13521609 0.055762231 -0.07082051 0.16250649
-0.29180765 0.26006287 0.64100003 -0.13320389 0.077269942 -0.10093418 0.18412395
-0.28891429 0.25965717 0.64000005 -0.13157544 0.089830935 -0.12073958 0.19989932
-0.28647619 0.25965717 0.64000005 -0.14417097 0.10401186 -0.15606079 0.23655592
-0.39130288 0.27765715 0.67800003 0.088748813 -0.11334051 0.049166292 0.15211754
-0.38242289 0.27683812 0.67600006 0.084583469 -0.13373874 0.056429178 0.16800198
-0.3772724 0.27683812 0.67600006 0.029912023 -0.14797634 0.059533715 0.16228367
-0.37414289 0.27642858 0.67500001 -0.064225651 -0.16470139 0.081194401 0.19453537
-0.37212193 0.27683812 0.67600006 -0.088152342 -0.15770666 0.085612953 0.19992951
-0.33576193 0.26250479 0.64100003 0.062355515 0.0081938207 -0.018320709 0.065505706
-0.33280003 0.26209524 0.64000005 0.06640815 0.0045020878 -0.015626848 0.068370387
-0.32932955 0.26127622 0.63800001 0.064649381 -0.0030900538 -0.0079181194 0.06520573
-0.32689908 0.26127622 0.63800001 0.061354809 -0.0090930164 -0.0016467869 0.062046815
-0.32192573 0.25922859 0.63300002 0.050753251 -0.012810826 0.0040213764 0.052499343
-0.31900954 0.25881907 0.63200003 0.046298079 -0.018318564 0.0096336603 0.0507138
-0.31660193 0.25881907 0.63200003 0.030093187 -0.016376644 0.010843605 0.035935752
-0.30937907 0.25881907 0.63200003 -0.028960602 0.0084832311 -0.0064385831 0.030856717
-0.30648574 0.25840953 0.63100004 -0.056408212 0.020660192 -0.018675625 0.062908739
-0.30408192 0.25840953 0.63100004 -0.075789109 0.030551285 -0.029902965 0.087014697
-0.30167812 0.25840953 0.63100004 -0.079226896 0.034722209 -0.033815563 0.092876397
-0.2992743 0.25840953 0.63100004 -0.081107527 0.039579391 -0.038618058 0.09816473
-0.2968705 0.25840953 0.63100004 -0.074517325 0.046808541 -0.045003593 0.098839231
-0.29353335 0.2575905 0.62900001 -0.075090438 0.055088878 -0.055339336 0.1083319
-0.29113716 0.2575905 0.62900001 -0.077940568 0.062337786 -0.065399796 0.11932252
-0.29195431 0.26045716 0.63600004 -0.089764796 0.059255362 -0.063712955 0.12501302
-0.28953144 0.26045716 0.63600004 -0.097913317 0.072472811 -0.082757592 0.14726895
-0.2871086 0.26045716 0.63600004 -0.10809889 0.084011912 -0.10486954 0.17245577
-0.2842381 0.26004764 0.63500005 -0.10463509 0.093281418 -0.12331349 0.18669799
-0.38185716 0.27900001 0.67500001 0.071159445 -0.12758495 0.054006934 0.15575087
-0.37414289 0.27900001 0.67500001 -0.069255032 -0.14842321 0.080186784 0.18236126
-0.37157145 0.27900001 0.67500001 -0.16591376 -0.15060048 0.10072622 0.2456698
-0.34768003 0.26288003 0.63600004 -0.13715418 0.0090017021 0.021755874 0.13916041
-0.34525716 0.26288003 0.63600004 -0.04765027 0.019977897 -0.014568985 0.053683516
-0.31900954 0.26122668 0.63200003 0.045097865 -0.020641148 0.011809409 0.05098369
-0.31660193 0.26122668 0.63200003 0.036037117 -0.019951999 0.012874097 0.043156672
-0.30888954 0.26081336 0.63100004 -0.030736642 0.012583673 -0.010323197 0.034780145
-0.30648574 0.26081336 0.63100004 -0.057335526 0.023448825 -0.02155003 0.065586686
-0.30408192 0.26081336 0.63100004 -0.075856388 0.033055902 -0.032433987 0.088875458
-0.30072191 0.2599867 0.62900001 -0.075637177 0.040284753 -0.039227307 0.094247676
-0.29832575 0.2599867 0.62900001 -0.080819212 0.044695348 -0.043807954 0.10221818
-0.29545906 0.25957334 0.62800002 -0.071327083 0.055642992 -0.054573029 0.10564994
-0.29353335 0.2599867 0.62900001 -0.067797869 0.055288255 -0.054612458 0.10313032
-0.29252574 0.26122668 0.63200003 -0.073007859 0.058128864 -0.058585703 0.11018801
-0.29103622 0.26205334 0.634 -0.076517969 0.065326899 -0.068786025 0.12187748
-0.28862098 0.26205334 0.634 -0.080392331 0.075258583 -0.083942413 0.138467
-0.28620574 0.26205334 0.634 -0.083047263 0.083758026 -0.09958002 0.15436462
-0.28244764 0.26081336 0.63100004 -0.07676819 0.092275798 -0.11617932 0.16705033
-0.27826858 0.25916001 0.62700003 -0.055109397 0.06295386 -0.073379368 0.11128686
-0.34955239 0.26488572 0.63500005 -0.18833767 0.010859042 0.026240855 0.19046675
-0.3465867 0.26446858 0.634 -0.054009281 0.032353252 -0.02942577 0.069495402
-0.34362859 0.26405144 0.63300002 -0.037655707 0.024741858 -0.021737784 0.050026424
-0.31900954 0.26363429 0.63200003 0.04602883 -0.025813341 0.015858144 0.055104107
-0.31610098 0.26321715 0.63100004 0.038619369 -0.027154386 0.018286616 0.050628219
-0.31369716 0.26321715 0.63100004 0.024830325 -0.020713955 0.015207857 0.035733625
-0.3079105 0.26238286 0.62900001 -0.030077279 0.010987192 -0.0087663233 0.033199541
-0.30551431 0.26238286 0.62900001 -0.053241335 0.02560252 -0.023393005 0.063540235
-0.30311811 0.26238286 0.62900001 -0.069654331 0.03932631 -0.038259566 0.088668361
-0.30024382 0.26196572 0.62800002 -0.073254168 0.047393024 -0.046597064 0.098911874
-0.29737717 0.26154858 0.62700003 -0.067763433 0.057755917 -0.057103008 0.10577515
-0.2949886 0.26154858 0.62700003 -0.066776499 0.060344636 -0.059543252 0.10791652
-0.29260001 0.26154858 0.62700003 -0.059611097 0.06444487 -0.065101385 0.10929234
-0.2906743 0.26196572 0.62800002 -0.058749575 0.06472677 -0.066476762 0.10981906
-0.28965905 0.26321715 0.63100004 -0.060686313 0.064731807 -0.066848695 0.11109358
-0.28725526 0.26321715 0.63100004 -0.065574914 0.073130906 -0.078698993 0.12586394
-0.28485146 0.26321715 0.63100004 -0.068236455 0.082840562 -0.095244884 0.14349341
-0.2815524 0.26238286 0.62900001 -0.061574869 0.082324028 -0.09695971 0.14131488
-0.27826858 0.26154858 0.62700003 -0.044065088 0.060428083 -0.068085402 0.10113806
-0.27588001 0.26154858 0.62700003 -0.028149873 0.051713139 -0.058626443 0.083088651
-0.35086289 0.26646286 0.63300002 -0.20790942 0.017746717 0.015056252 0.20920795
-0.34845147 0.26646286 0.63300002 -0.10936808 0.040417492 -0.037591636 0.12250748
-0.34549335 0.26604193 0.63200003 -0.072693504 0.042401224 -0.042190611 0.094139561
-0.34308574 0.26604193 0.63200003 -0.053539045 0.034516305 -0.032410294 0.071471892
-0.34013906 0.26562098 0.63100004 -0.029488649 0.029501885 -0.027410805 0.049912862
-0.31509906 0.26477906 0.62900001 0.03275755 -0.028487295 0.020331651 0.047937032
-0.31220573 0.2643581 0.62800002 0.028445501 -0.024148017 0.017386943 0.041165266
-0.30502859 0.2643581 0.62800002 -0.044916712 0.028377354 -0.025637746 0.058992196
-0.3021543 0.26393715 0.62700003 -0.058683254 0.041383088 -0.039220363 0.081820048
-0.29928765 0.26351622 0.62600005 -0.065193214 0.049728423 -0.048332572 0.095179349
-0.29690287 0.26351622 0.62600005 -0.06072294 0.059882134 -0.059184402 0.10380722
-0.29451811 0.26351622 0.62600005 -0.059644371 0.065489292 -0.06532836 0.11006404
-0.29260001 0.26393715 0.62700003 -0.058134392 0.067461133 -0.068703324 0.1124756
-0.29021144 0.26393715 0.62700003 -0.0526556 0.069053084 -0.071418166 0.1124344
-0.28874096 0.26477906 0.62900001 -0.054446064 0.071337909 -0.074537963 0.11665924
-0.28588954 0.2643581 0.62800002 -0.045680832 0.074865341 -0.07979694 0.11857112
-0.28349715 0.2643581 0.62800002 -0.044632319 0.078796029 -0.0873034 0.12578848
-0.28065717 0.26393715 0.62700003 -0.04830166 0.064808846 -0.071835279 0.10813669
-0.27826858 0.26393715 0.62700003 -0.040625021 0.059019148 -0.066005528 0.097418591
-0.27588001 0.26393715 0.62700003 -0.0078407824 0.060015231 -0.066846132 0.090176001
-0.35104191 0.26717526 0.62900001 -0.091326401 0.074337482 -0.0853692 0.14544578
-0.34864575 0.26717526 0.62900001 -0.092143774 0.071781129 -0.081015766 0.14214978
-0.34624955 0.26717526 0.62900001 -0.093886882 0.063715965 -0.070255369 0.13345519
-0.34385335 0.26717526 0.62900001 -0.069401324 0.049785852 -0.050484151 0.099216051
-0.34145716 0.26717526 0.62900001 -0.067065492 0.04446125 -0.044520587 0.091960132
-0.33852193 0.26675048 0.62800002 -0.029647013 0.031646878 -0.029559612 0.052480862
-0.30972001 0.26462668 0.62300003 0.019257911 -0.022032946 0.016674787 0.033680357
-0.30405715 0.26590097 0.62600005 -0.0303884 0.021493852 -0.018426359 0.041532774
-0.3016724 0.26590097 0.62600005 -0.052494958 0.039853901 -0.037190169 0.075678021
-0.29880956 0.2654762 0.625 -0.057749625 0.049851358 -0.048030913 0.090150684
-0.29595432 0.26505145 0.62400001 -0.052061833 0.052981198 -0.050771296 0.089973144
-0.29404762 0.2654762 0.625 -0.051286571 0.057360947 -0.055219412 0.09470889
-0.29120001 0.26505145 0.62400001 -0.045221157 0.056584001 -0.055050582 0.090979502
-0.28928572 0.2654762 0.625 -0.040779885 0.057209462 -0.056359649 0.090068482
-0.28736383 0.26590097 0.62600005 -0.037627302 0.067127526 -0.068523973 0.10304103
-0.28497908 0.26590097 0.62600005 -0.036134813 0.053916067 -0.053536475 0.084135726
-0.28259429 0.26590097 0.62600005 -0.040153287 0.055570245 -0.05689925 0.089094684
-0.28065717 0.26632574 0.62700003 -0.041925862 0.054805309 -0.058399051 0.090398282
-0.35287622 0.26914287 0.62800002 -0.092165627 0.071655989 -0.082742512 0.1430923
-0.35048383 0.26914287 0.62800002 -0.09360674 0.06985727 -0.07970649 0.14140503
-0.34809145 0.26914287 0.62800002 -0.099004701 0.068110913 -0.077543646 0.14301763
-0.34569907 0.26914287 0.62800002 -0.099032715 0.062711239 -0.069794476 0.13642377
-0.34276003 0.26871431 0.62700003 -0.084538013 0.060343266 -0.064959407 0.12250596
-0.34037146 0.26871431 0.62700003 -0.055375919 0.048833132 -0.048571765 0.088376373
-0.33798289 0.26871431 0.62700003 -0.040695619 0.036003441 -0.034210593 0.064208612
-0.3355943 0.26871431 0.62700003 -0.01900154 0.021519333 -0.019524187 0.034717921
-0.3107143 0.26785716 0.625 0.028621055 -0.024454743 0.017357528 0.041454587
-0.30405715 0.26828572 0.62600005 -0.025064476 0.021061987 -0.018075526 0.037397325
-0.3011905 0.26785716 0.625 -0.038268358 0.030072242 -0.026588976 0.055459719
-0.29833144 0.26742858 0.62400001 -0.049342714 0.038488686 -0.035214931 0.071806505
-0.29595432 0.26742858 0.62400001 -0.045860291 0.042463005 -0.038926184 0.073630974
-0.29357716 0.26742858 0.62400001 -0.04600133 0.050693393 -0.047529101 0.083336413
-0.29073337 0.26700002 0.62300003 -0.042834193 0.045804143 -0.042739958 0.075891316
-0.28882289 0.26742858 0.62400001 -0.036331672 0.04401049 -0.041501373 0.070563994
-0.28644574 0.26742858 0.62400001 -0.033677205 0.043631345 -0.041450709 0.068963826
-0.28452381 0.26785716 0.625 -0.031303238 0.046935201 -0.045717984 0.072615013
-0.28169146 0.26742858 0.62400001 -0.033986181 0.043516874 -0.043853223 0.070511587
-0.28020954 0.26828572 0.62600005 -0.036029834 0.048408806 -0.050636292 0.0787756
-0.35300574 0.26980573 0.62400001 -0.097892165 0.067505181 -0.078601211 0.14254114
-0.35231432 0.27110288 0.62700003 -0.09852583 0.068093717 -0.079068005 0.14351252
-0.34992573 0.27110288 0.62700003 -0.09363234 0.067835093 -0.077186018 0.13901904
-0.34753716 0.27110288 0.62700003 -0.099597819 0.064649045 -0.073104829 0.13944009
-0.34569907 0.27153525 0.62800002 -0.10305252 0.064296573 -0.072893023 0.14165896
-0.34276003 0.27110288 0.62700003 -0.089915544 0.061586946 -0.067332834 0.12810725
-0.33982858 0.2706705 0.62600005 -0.059583671 0.05656597 -0.058380932 0.10078818
-0.33690479 0.2702381 0.625 -0.053758971 0.054542482 -0.056105405 0.09493538
-0.33505908 0.2706705 0.62600005 -0.027393024 0.035983026 -0.034379661 0.056807719
-0.33214289 0.2702381 0.625 -0.00055574998 0.022333622 -0.021175802 0.030781716
-0.32633334 0.26937336 0.62300003 0.033033859 -0.0046801269 0.00024166703 0.03336462
-0.30022669 0.26937336 0.62300003 -0.030828923 0.01778084 -0.01453191 0.03844161
-0.29737526 0.26894096 0.62200004 -0.039271288 0.020863175 -0.017339945 0.047730282
-0.29500574 0.26894096 0.62200004 -0.042518374 0.02462393 -0.020845413 0.053373039
-0.29263622 0.26894096 0.62200004 -0.038465608 0.022827834 -0.018901438 0.04855901
-0.29026669 0.26894096 0.62200004 -0.036229998 0.024799615 -0.021227866 0.048767366
-0.28789717 0.26894096 0.62200004 -0.03017742 0.023451507 -0.020360827 0.043303732
-0.28552765 0.26894096 0.62200004 -0.028721763 0.025668263 -0.023058444 0.044894222
-0.28361335 0.26937336 0.62300003 -0.029207172 0.036328971 -0.034563899 0.058030304
-0.36251432 0.27218288 0.62400001 -0.10292926 0.077571869 -0.10764566 0.16792682
-0.3571867 0.2717467 0.62300003 -0.09542045 0.075464129 -0.093282908 0.15330231
-0.35481337 0.2717467 0.62300003 -0.089300178 0.069010496 -0.080816686 0.13881034
-0.35244003 0.2717467 0.62300003 -0.097045645 0.066772133 -0.078021854 0.14129326
-0.35062858 0.27218288 0.62400001 -0.095304005 0.066632301 -0.076449275 0.13916612
-0.34880954 0.27261907 0.625 -0.098814964 0.06539312 -0.074682742 0.14006488
-0.34698287 0.27305526 0.62600005 -0.10077643 0.06306088 -0.071529984 0.13874114
-0.34459811 0.27305526 0.62600005 -0.090338431 0.065042675 -0.071627408 0.13237095
-0.34221336 0.27305526 0.62600005 -0.083086535 0.069601178 -0.077379763 0.13317405
-0.33928573 0.27261907 0.625 -0.068693548 0.062446773 -0.066688448 0.11430553
-0.33690479 0.27261907 0.625 -0.060617208 0.060697109 -0.064323813 0.10722005
-0.33505908 0.27305526 0.62600005 -0.043073688 0.049971819 -0.050448 0.083051346
-0.33161145 0.27218288 0.62400001 -0.010733332 0.031845421 -0.030380905 0.0453027
-0.32580954 0.27131051 0.62200004 0.027338715 -0.012543976 0.0078793168 0.031094056
-0.32240003 0.2704381 0.62 0.022057794 -0.042066544 0.031564683 0.057030424
-0.29594097 0.27000192 0.61900002 -0.036088444 0.017308146 -0.01431933 0.042508718
-0.29358289 0.27000192 0.61900002 -0.036951549 0.021284759 -0.017884582 0.046241932
-0.29169527 0.2704381 0.62 -0.034114365 0.027379453 -0.023623854 0.049714293
-0.28933334 0.2704381 0.62 -0.028104698 0.029640496 -0.026147127 0.048498508
-0.28650859 0.27000192 0.61900002 -0.024130736 0.031564087 -0.028609514 0.048960067
-0.28552765 0.27131051 0.62200004 -0.023920251 0.031086534 -0.02829811 0.048366662
-0.28406858 0.27218288 0.62400001 -0.02461219 0.036055624 -0.033797264 0.055208903
-0.36135241 0.27368003 0.62200004 -0.083041526 0.09774819 -0.13955052 0.18953879
-0.35898289 0.27368003 0.62200004 -0.097402893 0.089473397 -0.12192997 0.1798881
-0.35661337 0.27368003 0.62200004 -0.11521231 0.073788792 -0.096925318 0.16766985
-0.35424384 0.27368003 0.62200004 -0.10053048 0.065863311 -0.079457581 0.14407589
-0.35187432 0.27368003 0.62200004 -0.10280413 0.06241864 -0.073962927 0.14119239
-0.3495048 0.27368003 0.62200004 -0.097461224 0.063788384 -0.073472559 0.13771662
-0.34769335 0.27412003 0.62300003 -0.097524099 0.063248754 -0.07193923 0.13669896
-0.34587431 0.27456 0.62400001 -0.10118886 0.062744558 -0.071200907 0.13872863
-0.34349716 0.27456 0.62400001 -0.08722879 0.066571862 -0.073371798 0.13200036
-0.34221336 0.27544001 0.62600005 -0.083522171 0.067451209 -0.074153632 0.1304775
-0.33928573 0.27500001 0.625 -0.06961897 0.058650464 -0.061755419 0.11000186
-0.33636573 0.27456 0.62400001 -0.062733851 0.060979962 -0.065154076 0.10908321
-0.33398861 0.27456 0.62400001 -0.050361045 0.04811132 -0.048699737 0.084985875
-0.33108002 0.27412003 0.62300003 -0.017199161 0.01998511 -0.017970622 0.031908605
-0.32423812 0.27236003 0.61900002 0.021621324 -0.026368767 0.019865811 0.039464466
-0.32344002 0.27368003 0.62200004 0.032195687 -0.041938543 0.030075759 0.060827255
