# .PCD v0.7 - Point Cloud Data file format
VERSION 0.7
FIELDS x y z normal_x normal_y normal_z curvature
SIZE 4 4 4 4 4 4 4
TYPE F F F F F F F
COUNT 1 1 1 1 1 1 1
WIDTH 575
HEIGHT 1
VIEWPOINT 0 0 0 1 0 0 0
POINTS 575
DATA ascii
0.34372383 -0.18700001 0.93500006 -0.032001436 0.021413952 -0.011710435 0.040246535
0.3480286 -0.18740001 0.93700004 -0.033674806 0.01153338 0.0050813556 0.035955969
0.35272384 -0.18800001 0.94000006 -0.042407334 -0.014170557 0.065150782 0.079017796
0.38440955 -0.18100001 0.90500003 -0.026715845 0.022374243 -0.013644159 0.037423335
0.38785717 -0.18100001 0.90500003 -0.027142987 0.018517673 -0.007891953 0.033792436
0.39130479 -0.18100001 0.90500003 -0.02932255 0.015536964 -0.0022293925 0.033259273
0.39388004 -0.18060002 0.90300006 -0.034991235 0.015994549 0.00062507391 0.038478602
0.39854097 -0.17960002 0.89800006 -0.013371572 0.020205706 -0.017953694 0.030156337
0.42853716 -0.17240001 0.86200005 0.011677161 -0.029521286 0.031261146 0.044554707
0.43859813 -0.17120001 0.85600007 -0.034253284 0.0080297887 0.013694078 0.037753049
0.44185907 -0.17120001 0.85600007 -0.045447722 0.010332882 0.017630756 0.049830787
0.44408002 -0.17080002 0.85400003 -0.049827635 0.018719018 0.007588461 0.053765971
0.44523811 -0.17000002 0.85000002 -0.049338073 0.03133589 -0.015414745 0.060446654
0.44478288 -0.16860001 0.84300005 -0.024672985 0.025994837 -0.028070301 0.045523945
0.45065147 -0.16960001 0.84800005 -0.040281683 0.038610578 -0.036941275 0.066918224
0.44692385 -0.16700001 0.83500004 -0.0048133731 0.023480654 -0.045729682 0.051630549
0.34269336 -0.19501334 0.99400002 -0.051071346 -0.15641648 0.18409947 0.24691498
0.34543431 -0.19442478 0.99100006 -0.090142041 -0.18802047 0.31300533 0.37609789
0.3481524 -0.1938362 0.98800004 -0.097760811 -0.18707345 0.32950869 0.39131781
0.35191622 -0.1938362 0.98800004 -0.11626498 -0.19929419 0.34308541 0.41345292
0.35568002 -0.1938362 0.98800004 -0.12540558 -0.2150254 0.35105884 0.43035427
0.34016192 -0.18343811 0.93500006 -0.027366504 0.02886793 -0.025288016 0.047135621
0.34262097 -0.18284954 0.93200004 -0.026828364 0.031047881 -0.028505951 0.049963199
0.34542859 -0.18245715 0.93000007 -0.014046729 0.032949895 -0.037296087 0.051710773
0.34784573 -0.18186858 0.92700005 -0.018601701 0.028987169 -0.028527856 0.044722676
0.35137716 -0.18186858 0.92700005 -0.013791263 0.024535239 -0.024785697 0.037503432
0.37876573 -0.17814097 0.90800005 -0.016157195 0.021334052 -0.018523663 0.032547239
0.38012004 -0.17716001 0.90300006 -0.019171268 0.027467549 -0.025280088 0.041965302
0.38271049 -0.17676763 0.90100002 -0.029905692 0.02797845 -0.01960066 0.045401871
0.38614288 -0.17676763 0.90100002 -0.0379989 0.026057869 -0.012376875 0.047708657
0.38827813 -0.17617907 0.89800006 -0.043330386 0.026033103 -0.0092174709 0.05138294
0.3908267 -0.17578667 0.89600003 -0.042253748 0.025118619 -0.0082085133 0.049836773
0.39336002 -0.1753943 0.89400005 -0.030577362 0.024546474 -0.013620257 0.041509226
0.39676574 -0.1753943 0.89400005 -0.022681877 0.022201031 -0.014844179 0.03503859
0.41166669 -0.17166668 0.87500006 0.012830317 -0.030390412 0.030357897 0.044830751
0.41500002 -0.17166668 0.87500006 0.014610022 -0.025474429 0.022577763 0.037042607
0.41737717 -0.1712743 0.87300003 0.026216596 -0.033988953 0.024255276 0.049303927
0.41877526 -0.17048953 0.86900002 0.034031227 -0.044010431 0.03150034 0.063932098
0.42208573 -0.17048953 0.86900002 0.032705799 -0.040572375 0.027616262 0.058978342
0.42441717 -0.17009716 0.86700004 0.028502762 -0.037475675 0.027568936 0.054560792
0.42673337 -0.16970478 0.86500007 0.025689855 -0.034929574 0.026826352 0.050987221
0.4275429 -0.16872382 0.86000001 0.023292124 -0.024890363 0.017157733 0.038163345
0.42881528 -0.16793905 0.85600007 0.025348902 -0.018868536 0.0072129518 0.032413192
0.44157144 -0.16538858 0.84300005 -0.016677842 0.02287516 -0.030140266 0.041350443
0.43950671 -0.16342668 0.83300006 0.0089372098 0.010287285 -0.031134039 0.033985738
0.44268003 -0.16342668 0.83300006 0.015502885 0.0072950721 -0.031589299 0.035936631
0.44478288 -0.16303429 0.83100003 0.017457053 0.0052358806 -0.02914685 0.034375895
0.33788383 -0.19064954 0.99100006 -0.12487736 -0.092984557 0.17503707 0.23426151
0.34165907 -0.19064954 0.99100006 -0.11360714 -0.13953723 0.25071841 0.30860484
0.3443886 -0.19007239 0.98800004 -0.11028466 -0.15298216 0.30901083 0.36201373
0.3481524 -0.19007239 0.98800004 -0.097638384 -0.17108814 0.31797892 0.37405214
0.33196956 -0.17929906 0.93200004 0.021995917 0.019563287 -0.044324577 0.053209122
0.33732003 -0.18026097 0.93700004 -0.038523391 0.015470833 0.003297016 0.041644551
0.3390705 -0.17929906 0.93200004 -0.024740323 0.032322019 -0.030763388 0.051021393
0.34078288 -0.17833716 0.92700005 -0.020240501 0.028387815 -0.025765657 0.04335222
0.34357145 -0.17795239 0.92500007 -0.024352133 0.027064115 -0.021753997 0.042411428
0.34709525 -0.17795239 0.92500007 -0.022495717 0.029580176 -0.026473135 0.045627523
0.34948194 -0.17737526 0.92200005 -0.024812683 0.019597232 -0.01149255 0.033642229
0.35299432 -0.17737526 0.92200005 -0.028680906 0.015568107 -0.004525125 0.032945972
0.35573336 -0.17699049 0.92000002 -0.030550629 0.014145464 -0.0016566813 0.033707265
0.37241337 -0.17333525 0.90100002 0.0077759773 0.0152798 -0.025058776 0.030362483
0.37801525 -0.1727581 0.89800006 -0.0089963675 0.020422518 -0.021196038 0.030778009
0.38143623 -0.1727581 0.89800006 -0.026297674 0.022584885 -0.013808161 0.03731367
0.38400003 -0.17237334 0.89600003 -0.032536954 0.019610882 -0.0062466562 0.038500141
0.38525146 -0.17141144 0.89100003 -0.039494872 0.018860519 -0.0014200211 0.043790188
0.38864574 -0.17141144 0.89100003 -0.039490029 0.016635537 0.0017468631 0.042886537
0.39116001 -0.17102668 0.88900006 -0.03248553 0.014227897 0.0013459325 0.0354902
0.40638861 -0.16891049 0.87800002 0.0072161257 -0.019943029 0.021761209 0.030386627
0.40833336 -0.16833335 0.87500006 0.0054348558 -0.025829852 0.030823469 0.040580846
0.41072574 -0.16794859 0.87300003 0.01097098 -0.034521073 0.037879527 0.05241112
0.4131029 -0.16756383 0.87100005 0.017842323 -0.035812646 0.034756035 0.05299883
0.41546479 -0.16717906 0.86900002 0.02832292 -0.042967439 0.036040172 0.062827401
0.41781145 -0.1667943 0.86700004 0.036531717 -0.045293689 0.032574505 0.066687196
0.42014289 -0.16640954 0.86500007 0.039372176 -0.046929508 0.032857835 0.069513917
0.42196956 -0.16583239 0.86200005 0.04015106 -0.045495689 0.031485677 0.06836164
0.4242667 -0.16544762 0.86000001 0.042259797 -0.040728211 0.023748457 0.063314028
0.4275429 -0.16544762 0.86000001 0.035578981 -0.032866031 0.018416852 0.051819112
0.42881528 -0.16467811 0.85600007 0.030165121 -0.020992041 0.0069583207 0.037403457
0.43193716 -0.16217716 0.84300005 -0.00045955181 0.013753593 -0.028514355 0.031661347
0.43411621 -0.1617924 0.84100002 -0.00052267313 0.013225973 -0.027488276 0.030509096
0.43947622 -0.16140763 0.83900005 0.0040914267 0.011818826 -0.029100299 0.03167415
0.43845147 -0.15986858 0.83100003 0.031083256 -0.0046012402 -0.021425486 0.038031455
0.43949145 -0.15909906 0.82700002 0.039567962 -0.0073089898 -0.02458404 0.047153153
0.44264194 -0.15909906 0.82700002 0.049524963 -0.01117754 -0.029435903 0.058686726
0.33686098 -0.18630858 0.98800004 -0.15241013 -0.093925297 0.23947445 0.29899636
0.34062478 -0.18630858 0.98800004 -0.15501817 -0.11530861 0.28965011 0.34817222
0.3443886 -0.18630858 0.98800004 -0.14515653 -0.13297945 0.30855459 0.3660053
0.34709525 -0.18574287 0.98500007 -0.12161659 -0.11053887 0.28740513 0.33107573
0.33125716 -0.17537144 0.93000007 0.030067101 0.023140401 -0.05101189 0.063574538
0.33372003 -0.17480573 0.92700005 0.012342513 0.019759268 -0.032449871 0.03994697
0.33543241 -0.17386287 0.92200005 -0.0022719204 0.02037245 -0.023366809 0.031083856
0.34409335 -0.17292002 0.91700006 -0.027704582 0.018842667 -0.0079779029 0.034441791
0.34758669 -0.17292002 0.91700006 -0.035468906 0.018280864 -0.0036723316 0.040071428
0.35031432 -0.17254287 0.91500002 -0.039849237 0.016743243 0.00017306209 0.04322416
0.35302669 -0.17216572 0.91300005 -0.032754079 0.016155452 -0.0024184883 0.036601603
0.3565048 -0.17216572 0.91300005 -0.027433544 0.017664433 -0.0070003867 0.033371199
0.38352194 -0.16726287 0.88700002 -0.028812185 -0.00052177906 0.018019378 0.033986945
0.38690099 -0.16726287 0.88700002 -0.034470484 0.00050452352 0.019913882 0.039812453
0.39028004 -0.16726287 0.88700002 -0.032399386 0.0014278591 0.018035412 0.037108421
0.39232764 -0.16669716 0.88400006 -0.025622845 -0.0075502098 0.026796818 0.037836559
0.39390478 -0.16594286 0.88000005 -0.017802984 -0.016837656 0.035114676 0.04281931
0.39635432 -0.16556573 0.87800002 -0.012690023 -0.018763721 0.035005301 0.041695144
0.39969906 -0.16556573 0.87800002 -0.0068713576 -0.019536436 0.032272667 0.038345963
0.40304384 -0.16556573 0.87800002 0.0031521916 -0.022290289 0.028812647 0.036564488
0.40500003 -0.16500001 0.87500006 0.0029013306 -0.02252987 0.029822975 0.037488967
0.40646669 -0.16424572 0.87100005 0.0020967126 -0.026181221 0.036591098 0.04504177
0.40884385 -0.16386858 0.86900002 0.006692633 -0.031367064 0.040679947 0.051802915
0.41215432 -0.16386858 0.86900002 0.0091337115 -0.031233877 0.038260862 0.050228212
0.41450861 -0.16349144 0.86700004 0.017599449 -0.033989519 0.036253244 0.05271931
0.41540194 -0.16254859 0.86200005 0.018265888 -0.019172341 0.016064361 0.030972328
0.41771433 -0.16217144 0.86000001 0.026535302 -0.021703362 0.013044089 0.036678419
0.42001146 -0.16179429 0.85800004 0.032634586 -0.015565425 -0.00290142 0.036272813
0.42229337 -0.16141716 0.85600007 0.044125184 -0.021207482 -0.0049516857 0.04920679
0.42555431 -0.16141716 0.85600007 0.040213928 -0.017668694 -0.0076629966 0.044587713
0.4233048 -0.15934287 0.84500003 0.0055463761 0.011493713 -0.030227765 0.032811362
0.42551431 -0.15896572 0.84300005 0.0047791749 0.012892008 -0.032834604 0.035597131
0.4277086 -0.15858859 0.84100002 0.0076576024 0.010483354 -0.029893115 0.032590456
0.43633336 -0.15708001 0.83300006 0.024533629 -0.0013557374 -0.021011636 0.032329954
0.43528575 -0.15557145 0.82500005 0.039705768 -0.0080956221 -0.022676304 0.046435997
0.43736574 -0.1551943 0.82300001 0.047171101 -0.0096517801 -0.027849913 0.055622723
0.43621907 -0.15368572 0.81500006 0.042701915 -0.011740208 -0.018151134 0.047861777
0.32833335 -0.18199049 0.98500007 -0.21517417 -0.04663986 0.19034308 0.29104242
0.33583811 -0.18199049 0.98500007 -0.21224481 -0.10414201 0.3045305 0.38552853
0.32665718 -0.1712743 0.92700005 -0.019076422 0.036325753 -0.034423977 0.053558197
0.3301886 -0.1712743 0.92700005 0.020847127 0.026612103 -0.047021121 0.057911936
0.37676382 -0.16388382 0.88700002 0.0066729486 -0.027482063 0.030114233 0.04131173
0.38014287 -0.16388382 0.88700002 -0.010301784 -0.014259428 0.024694264 0.03031938
0.3822248 -0.16332954 0.88400006 -0.017255113 -0.023131847 0.041319519 0.050399642
0.3855924 -0.16332954 0.88400006 -0.029123351 -0.017757803 0.04140386 0.053645026
0.38808003 -0.16296001 0.88200003 -0.024958268 -0.020267308 0.04326573 0.053903639
0.3896648 -0.16222097 0.87800002 -0.017964259 -0.030294836 0.054135248 0.064584181
0.39300954 -0.16222097 0.87800002 -0.015245095 -0.028032899 0.049330696 0.058751803
0.39635432 -0.16222097 0.87800002 -0.0083715171 -0.027343333 0.044060484 0.052526813
0.39833337 -0.16166668 0.87500006 -0.001968503 -0.031194985 0.046019703 0.055631064
0.40074861 -0.16129716 0.87300003 0.0019334406 -0.024740189 0.035517156 0.04332763
0.40314859 -0.16092762 0.87100005 0.004495129 -0.028892457 0.039928362 0.049489941
0.40460002 -0.16018859 0.86700004 0.0014163703 -0.02637729 0.039736986 0.047715779
0.40696192 -0.15981905 0.86500007 0.0044099241 -0.024294287 0.035294905 0.043074239
0.41025716 -0.15981905 0.86500007 0.0007160008 -0.023687154 0.036619887 0.043618917
0.41364765 -0.15612382 0.84500003 -0.012091756 0.025766492 -0.049897969 0.057445019
0.41489336 -0.15538478 0.84100002 -0.010606796 0.025497377 -0.050609171 0.057653349
0.43317527 -0.15168953 0.82100004 0.034100085 -0.0093949139 -0.013002023 0.037684649
0.43461335 -0.15002668 0.81200004 0.035951167 -0.017599285 0.0014085472 0.040052529
0.33040002 -0.17733334 0.98000002 -0.25876254 -0.050642014 0.28945255 0.39154238
0.31959429 -0.16774286 0.92700005 -0.023306772 0.018095791 -0.0078212023 0.030525964
0.32312575 -0.16774286 0.92700005 -0.01060766 0.024337679 -0.022529751 0.034820031
0.33012003 -0.16593334 0.91700006 -0.024093762 -0.0060308278 0.019026548 0.031287216
0.3414667 -0.16466668 0.91000003 -0.0048896819 -0.024965614 0.028789341 0.038418967
0.34493336 -0.16466668 0.91000003 -0.016763389 -0.013856173 0.023964196 0.03236182
0.34648573 -0.16376191 0.90500003 -0.0031408668 -0.02960968 0.032702237 0.044227079
0.34916002 -0.16340001 0.90300006 -0.0061376542 -0.021716923 0.026578248 0.034866873
0.36745337 -0.16086668 0.88900006 0.028689012 -0.032832265 0.020474911 0.048168857
0.37000573 -0.16050477 0.88700002 0.023224175 -0.039929271 0.034340709 0.057558607
0.37338477 -0.16050477 0.88700002 0.01702778 -0.036915183 0.03562364 0.054052934
0.37548956 -0.15996191 0.88400006 0.012576342 -0.037779957 0.041652948 0.057623412
0.37800002 -0.1596 0.88200003 0.0045962781 -0.040362418 0.051469699 0.065569662
0.38136002 -0.1596 0.88200003 -0.010655403 -0.034498245 0.053634718 0.064655624
0.38297525 -0.1588762 0.87800002 -0.011461616 -0.042080849 0.065983221 0.079094574
0.38632002 -0.1588762 0.87800002 -0.020768791 -0.037730247 0.06633465 0.07908982
0.38833335 -0.15833335 0.87500006 -0.011633918 -0.031043768 0.054102048 0.063451521
0.38987622 -0.15760954 0.87100005 -0.0019109994 -0.030152977 0.048882872 0.057466418
0.39500004 -0.15833335 0.87500006 -0.008279562 -0.026175886 0.044822544 0.052562237
0.39469147 -0.15688573 0.86700004 0.0035609305 -0.025454611 0.03912425 0.046811584
0.39799431 -0.15688573 0.86700004 0.00092306733 -0.023862481 0.038063869 0.044934712
0.39898288 -0.15598096 0.86200005 0.001555264 -0.021186948 0.035772771 0.041605249
0.40133336 -0.15561906 0.86000001 -0.0087621957 0.023555845 -0.045092434 0.051623456
0.40272763 -0.15489525 0.85600007 -0.015285999 0.031090617 -0.061801657 0.070850074
0.40693718 -0.15525715 0.85800004 -0.0056756586 0.020135731 -0.039666668 0.044845346
0.41020575 -0.15525715 0.85800004 -0.0010757297 0.013623804 -0.028011888 0.031167788
0.40624574 -0.15254287 0.84300005 -0.034466401 0.031522334 -0.046520725 0.065922439
0.40848574 -0.15218097 0.84100002 -0.026478946 0.026890844 -0.040605232 0.055434979
0.32591429 -0.16208573 0.91500002 -0.017526016 -0.021510482 0.031057626 0.041646589
0.32868001 -0.16173144 0.91300005 -0.017777666 -0.020448208 0.030231416 0.040596958
0.33453336 -0.16120002 0.91000003 -0.0057719797 -0.030189872 0.033890903 0.045753006
0.33725718 -0.16084573 0.90800005 -0.0018910766 -0.032470882 0.034362733 0.04731524
0.34071621 -0.16084573 0.90800005 -0.0033196807 -0.033457994 0.035979956 0.049244441
0.34303811 -0.16031429 0.90500003 -0.0027023703 -0.034504473 0.037002832 0.050666273
0.34572002 -0.15996002 0.90300006 0.0020439178 -0.03200081 0.032114267 0.045382328
0.34838668 -0.15960573 0.90100002 0.0073313862 -0.028034955 0.025533795 0.038622309
0.35064763 -0.15907429 0.89800006 0.0090610683 -0.033426374 0.030650496 0.046248011
0.35406861 -0.15907429 0.89800006 0.011378318 -0.02622512 0.022024482 0.036087409
0.35669336 -0.15872002 0.89600003 0.017446235 -0.025366813 0.017605066 0.035465259
0.35930288 -0.15836573 0.89400005 0.021179423 -0.031940371 0.023000896 0.044696718
0.3627086 -0.15836573 0.89400005 0.026998356 -0.030491918 0.018093288 0.044564959
0.36406669 -0.15748002 0.88900006 0.031205788 -0.043187857 0.031718194 0.062008355
0.36662668 -0.15712573 0.88700002 0.033395797 -0.047735929 0.036868095 0.068943851
0.3687543 -0.15659429 0.88400006 0.030549169 -0.054598987 0.050326362 0.080293484
0.37212193 -0.15659429 0.88400006 0.023161218 -0.050032675 0.050050288 0.074463025
0.3737905 -0.15588573 0.88000005 0.027039438 -0.055904001 0.058276862 0.085162088
0.37628573 -0.15553144 0.87800002 0.010215744 -0.055101305 0.070255816 0.089868762
0.37963051 -0.15553144 0.87800002 0.002109468 -0.049681813 0.068998694 0.085050292
0.38166669 -0.15500002 0.87500006 -0.0030088872 -0.052202076 0.077383235 0.093393125
0.38500002 -0.15500002 0.87500006 -0.0034817457 -0.042911053 0.066015542 0.078813277
0.38655812 -0.15429144 0.87100005 0.0034534931 -0.038704634 0.058015257 0.069826536
0.38898098 -0.15393715 0.86900002 0.0064121783 -0.033327013 0.049289301 0.059843473
0.39229146 -0.15393715 0.86900002 0.0036313385 -0.02624172 0.040850744 0.048688784
0.39469147 -0.15358287 0.86700004 0.0070926398 -0.027401417 0.040543869 0.049446423
0.39386287 -0.15198858 0.85800004 -0.023707539 0.036933661 -0.074029312 0.086060919
0.3901886 -0.14933144 0.84300005 -0.037194565 0.0097254515 0.0068879277 0.039057184
0.39340001 -0.14933144 0.84300005 -0.045692615 0.018223792 -0.0060357451 0.049561597
0.39661145 -0.14933144 0.84300005 -0.040902689 0.020830035 -0.014922619 0.048265982
0.39887431 -0.14897715 0.84100002 -0.037797198 0.017287225 -0.0089580566 0.042517327
0.40112194 -0.14862287 0.83900005 -0.036988989 -5.4419041e-05 0.026076436 0.0452567
0.40335432 -0.14826858 0.83700001 -0.02877897 0.0075489283 0.0058630109 0.030324748
0.40827623 -0.14437144 0.81500006 0.0026839375 -0.015089303 0.026594907 0.030694947
0.42380002 -0.14437144 0.81500006 -0.021830305 -0.0049478114 0.025364131 0.033828717
0.42533335 -0.14384001 0.81200004 -0.018217012 -0.0068552792 0.026491612 0.032873392
0.42631623 -0.14313143 0.80800003 -0.022318795 -0.0070033073 0.029325709 0.037512291
0.30566669 -0.15894668 0.91700006 0.055345207 -0.05408594 0.01607433 0.079036482
0.31084573 -0.15981334 0.92200005 0.040396452 -0.020948321 -0.0051115155 0.04579119
0.3161467 -0.15894668 0.91700006 0.00025418401 -0.024036139 0.023832649 0.033849604
0.31894287 -0.15860002 0.91500002 -0.0094670951 -0.02514562 0.029977679 0.040256545
0.32172382 -0.15825334 0.91300005 -0.016830161 -0.02423057 0.032588601 0.043958977
0.32413337 -0.15773335 0.91000003 -0.021267995 -0.028825819 0.039554775 0.053365115
0.32760003 -0.15773335 0.91000003 -0.017442942 -0.033899546 0.042594045 0.057163697
0.3310667 -0.15773335 0.91000003 -0.011554614 -0.026724488 0.033235222 0.044184696
0.33379811 -0.15738668 0.90800005 -0.0068818927 -0.030149341 0.034328312 0.046203639
0.33725718 -0.15738668 0.90800005 -0.0023953468 -0.03541553 0.03724578 0.051451389
0.33959049 -0.15686667 0.90500003 -0.00050754845 -0.043115467 0.043637365 0.061346725
0.34152192 -0.15617335 0.90100002 0.0068569481 -0.046615094 0.044415504 0.06475123
0.34495431 -0.15617335 0.90100002 0.013620943 -0.043651462 0.037464738 0.05911503
0.34722668 -0.15565334 0.89800006 0.016791686 -0.045581371 0.038948298 0.062262286
0.34986669 -0.15530668 0.89600003 0.018414438 -0.049367785 0.04289493 0.067942955
0.35249144 -0.15496001 0.89400005 0.024795964 -0.052974433 0.044421107 0.073446341
0.35589716 -0.15496001 0.89400005 0.022083461 -0.049207211 0.041283906 0.067921937
0.35809717 -0.15444002 0.89100003 0.033050254 -0.054274023 0.042642087 0.076526701
0.36068001 -0.15409334 0.88900006 0.04046905 -0.057679087 0.04287979 0.082482107
0.36406669 -0.15409334 0.88900006 0.036046863 -0.048986793 0.035833478 0.070591219
0.36538669 -0.15322667 0.88400006 0.039140686 -0.060606599 0.052507207 0.089230932
0.36792001 -0.15288001 0.88200003 0.031605989 -0.060799599 0.059707955 0.090887673
0.37043813 -0.15253334 0.88000005 0.030528098 -0.06096524 0.062963367 0.092806853
0.37294099 -0.15218668 0.87800002 0.027267247 -0.062544256 0.069027141 0.097056851
0.37500003 -0.15166667 0.87500006 0.020564377 -0.065332055 0.079104379 0.10463591
0.37833336 -0.15166667 0.87500006 0.0058709383 -0.058262497 0.080306947 0.099389091
0.38079432 -0.15132001 0.87300003 0.0045963973 -0.050690353 0.072931856 0.088936463
0.38324001 -0.15097335 0.87100005 0.0073218048 -0.042458892 0.06137307 0.074986801
0.38281146 -0.14698668 0.84800005 -0.026438355 0.029429764 -0.051004127 0.064548574
0.38376573 -0.14612001 0.84300005 -0.025078088 -0.0013694763 0.021758407 0.03322972
0.38605908 -0.14577334 0.84100002 -0.026477203 0.0010097325 0.01770553 0.031867657
0.38833717 -0.14542668 0.83900005 -0.026028097 -0.0014643371 0.022155195 0.034211967
0.39153334 -0.14542668 0.83900005 -0.035072908 0.0024353564 0.02007395 0.040484607
0.39472955 -0.14542668 0.83900005 -0.045165256 -0.0042039752 0.038324535 0.059383024
0.39697716 -0.14508002 0.83700001 -0.042868957 0.014415473 0.00030235946 0.045228805
0.39920956 -0.14473334 0.83500004 -0.034858018 0.011879236 0.00055225194 0.036830731
0.4014267 -0.14438668 0.83300006 -0.021905109 0.014896125 -0.01574254 0.030814866
0.40092003 -0.14196001 0.81900007 0.032501325 -0.033253163 0.034244403 0.057747625
0.40467432 -0.14109334 0.81400001 0.028469592 -0.043729961 0.052736878 0.074188985
0.40777525 -0.14109334 0.81400001 0.020298436 -0.045222431 0.061378241 0.078894757
0.40986669 -0.14074668 0.81200004 0.016373113 -0.046024829 0.064620987 0.08100763
0.41194287 -0.14040001 0.81000006 0.0113855 -0.043325335 0.063705236 0.077878572
0.41400385 -0.14005335 0.80800003 -0.0041448623 -0.033364087 0.059677064 0.068495944
0.41708192 -0.14005335 0.80800003 -0.017040119 -0.022369683 0.050710768 0.057985775
0.41808003 -0.13936001 0.80400002 -0.012415722 -0.02025184 0.04523772 0.051095385
0.42009526 -0.13901334 0.80200005 -0.021296099 -0.025177091 0.058971524 0.067565158
0.42209527 -0.13866667 0.80000001 -0.012761965 -0.016721606 0.040914237 0.046004944
0.42620575 -0.13901334 0.80200005 -0.012403682 -0.016263992 0.039829507 0.044774525
0.42926097 -0.13901334 0.80200005 -0.022184223 -0.020656139 0.053215697 0.061243173
0.30666667 -0.15596192 0.92000002 0.054165125 -0.04750371 0.010623813 0.072823957
0.31017146 -0.15596192 0.92000002 0.045588225 -0.034984529 0.0052874684 0.057707544
0.31265336 -0.15545334 0.91700006 0.031797364 -0.041442424 0.021733165 0.056576297
0.31545717 -0.15511429 0.91500002 0.0066938102 -0.034285873 0.030626178 0.04645741
0.31720003 -0.15426667 0.91000003 -0.0038610101 -0.045028239 0.047148973 0.065310605
0.31996194 -0.15392762 0.90800005 -0.014395118 -0.050622731 0.059351712 0.079325318
0.32342097 -0.15392762 0.90800005 -0.011853248 -0.04290697 0.050043881 0.066976838
0.32760003 -0.15426667 0.91000003 -0.011797473 -0.032990009 0.03974241 0.052980941
0.33033907 -0.15392762 0.90800005 -0.007493034 -0.038262337 0.042734385 0.057847902
0.33379811 -0.15392762 0.90800005 -0.010436237 -0.03714323 0.043183923 0.057908427
0.33614287 -0.15341906 0.90500003 -0.008105278 -0.045549542 0.050459206 0.068458654
0.33884001 -0.15308002 0.90300006 -0.0020723045 -0.052699059 0.055339247 0.07644552
0.34038478 -0.15223239 0.89800006 0.014819235 -0.06182009 0.057852745 0.085955068
0.34380573 -0.15223239 0.89800006 0.018692374 -0.05610317 0.048923165 0.076749243
0.34645337 -0.15189335 0.89600003 0.020454198 -0.06337437 0.057907343 0.088249341
0.34986669 -0.15189335 0.89600003 0.022719979 -0.058716536 0.051053494 0.081057318
0.35328004 -0.15189335 0.89600003 0.019029751 -0.052422911 0.047017664 0.072944865
0.35390669 -0.15070668 0.88900006 0.033327311 -0.073870569 0.067232102 0.10529827
0.35729337 -0.15070668 0.88900006 0.040280402 -0.070411801 0.059310079 0.10048889
0.35986859 -0.15036763 0.88700002 0.051802069 -0.072535515 0.055955321 0.10524188
0.36324763 -0.15036763 0.88700002 0.046197936 -0.064341903 0.050391138 0.093879692
0.36456004 -0.14952001 0.88200003 0.046982303 -0.071036249 0.062889084 0.10587031
0.36625144 -0.14884192 0.87800002 0.040715277 -0.075588346 0.076716378 0.11513789
0.36833337 -0.14833334 0.87500006 0.041251957 -0.079168051 0.083222166 0.12204602
0.37081715 -0.14799429 0.87300003 0.032846779 -0.0734272 0.084028214 0.11632371
0.37328574 -0.14765525 0.87100005 0.031167835 -0.070948482 0.083191037 0.11369199
0.37573907 -0.1473162 0.86900002 0.018692017 -0.024151266 0.028583169 0.041829091
0.37076193 -0.14409524 0.85000002 0.0063341558 0.0093600154 -0.028923094 0.031052805
0.37312001 -0.1437562 0.84800005 0.012778878 -0.021805972 0.032487392 0.041161034
0.37501907 -0.14324763 0.84500003 0.0025117993 -0.020372838 0.037784383 0.043000247
0.37734288 -0.14290859 0.84300005 -0.003667891 -0.01626569 0.034893543 0.038672801
0.37965146 -0.14256953 0.84100002 -0.010967791 -0.011101484 0.03077814 0.034508392
0.39413145 -0.1408743 0.83100003 -0.036648437 0.0030463636 0.019806266 0.041769326
0.39468002 -0.13884 0.81900007 0.012673467 -0.037550092 0.054725632 0.067568637
0.39682859 -0.13850096 0.81700003 0.023875847 -0.045612812 0.058711693 0.078087434
0.39994097 -0.13850096 0.81700003 0.027562484 -0.045831621 0.056355312 0.077692658
0.40206671 -0.13816191 0.81500006 0.037357077 -0.060692757 0.069284305 0.099395558
0.40368003 -0.13765334 0.81200004 0.04084231 -0.068808138 0.077048063 0.11108132
0.40577146 -0.13731429 0.81000006 0.039405942 -0.068793744 0.077773139 0.11105885
0.40885717 -0.13731429 0.81000006 0.02014102 -0.045712113 0.06125924 0.079043992
0.41092575 -0.13697524 0.80800003 0.013777807 -0.045422763 0.065235004 0.080676273
0.41297907 -0.1366362 0.80600005 0.0086442083 -0.032414675 0.050190032 0.060369469
0.41501716 -0.13629715 0.80400002 0.0028730184 -0.028519452 0.04845354 0.05629706
0.41704002 -0.13595811 0.80200005 -0.006644547 -0.022112101 0.045067415 0.050637603
0.42009526 -0.13595811 0.80200005 -0.014073148 -0.020986527 0.048309594 0.054518845
0.29840574 -0.15361716 0.92700005 0.043611214 -0.07574603 0.039450437 0.095894396
0.30030859 -0.15278858 0.92200005 0.036374465 -0.074893624 0.048067182 0.0961385
0.30382097 -0.15278858 0.92200005 0.054365844 -0.072266251 0.032672197 0.096153669
0.30666667 -0.15245715 0.92000002 0.059942991 -0.063623846 0.022580683 0.090283126
0.30916002 -0.15196002 0.91700006 0.04602538 -0.057685137 0.027856022 0.07887882
0.31265336 -0.15196002 0.91700006 0.034626961 -0.046112686 0.02513966 0.062907934
0.31476763 -0.15129715 0.91300005 0.012822345 -0.046359211 0.038547456 0.061640047
0.31650287 -0.15046859 0.90800005 -0.0063925236 -0.05659616 0.061433107 0.083773606
0.31996194 -0.15046859 0.90800005 -0.014929727 -0.059731722 0.067563564 0.091409035
0.32342097 -0.15046859 0.90800005 -0.010542765 -0.052230418 0.058660746 0.079248026
0.32580003 -0.14997144 0.90500003 -0.011686295 -0.062069356 0.070059597 0.094326675
0.32924765 -0.14997144 0.90500003 -0.0093198717 -0.064466804 0.070262343 0.095810361
0.33269525 -0.14997144 0.90500003 -0.0090561658 -0.066261292 0.071212262 0.097692169
0.33465716 -0.14930858 0.90100002 -0.0015589595 -0.077955008 0.080983549 0.11241774
0.33696383 -0.14881144 0.89800006 0.015057907 -0.086070925 0.083689004 0.12099088
0.3396267 -0.14848001 0.89600003 0.026224986 -0.084090382 0.077609867 0.11739776
0.34227431 -0.14814858 0.89400005 0.030585468 -0.083191484 0.076178104 0.11687342
0.34568003 -0.14814858 0.89400005 0.026780009 -0.074531823 0.069524199 0.10538395
0.34791431 -0.14765143 0.89100003 0.025543436 -0.079761624 0.077825993 0.11432965
0.34973145 -0.14698859 0.88700002 0.034061462 -0.084832758 0.083147585 0.12357306
0.35311049 -0.14698859 0.88700002 0.040354058 -0.084328413 0.078588501 0.1221306
0.35528383 -0.14649144 0.88400006 0.047315791 -0.083484739 0.076426491 0.12267638
0.35784003 -0.14616001 0.88200003 0.056093141 -0.083303928 0.071442083 0.12324754
0.36038098 -0.14582857 0.88000005 0.061518356 -0.083924085 0.069643006 0.12521145
0.36166668 -0.14500001 0.87500006 0.056330472 -0.082108527 0.076302439 0.12544717
0.36500001 -0.14500001 0.87500006 0.046104908 -0.080215245 0.082523584 0.12397698
0.36664954 -0.14433715 0.87100005 0.047866195 -0.076520324 0.079722688 0.12042525
0.36996764 -0.14433715 0.87100005 0.040769935 -0.07552433 0.084158137 0.12020276
0.36128575 -0.13969715 0.84300005 0.045105606 -0.031707466 0.022599444 0.059587028
0.36536193 -0.14002858 0.84500003 0.035870731 -0.027950823 0.024138838 0.05148438
0.36770859 -0.13969715 0.84300005 0.032285869 -0.025635362 0.022992358 0.047203787
0.37092003 -0.13969715 0.84300005 0.024427444 -0.022649199 0.024436042 0.041313514
0.37324384 -0.13936572 0.84100002 0.014856413 -0.017254651 0.022537306 0.032036949
0.38185716 -0.13671429 0.82500005 -0.012889698 -0.014115006 0.034957811 0.03984252
0.3840667 -0.13638286 0.82300001 -0.014122009 -0.020095944 0.045097768 0.051352575
0.38626099 -0.13605143 0.82100004 -0.012831911 -0.033078074 0.063165352 0.072447769
0.38938859 -0.13605143 0.82100004 -0.016121447 -0.026540071 0.05613105 0.064148039
0.39156002 -0.13572001 0.81900007 -0.0020356923 -0.036980331 0.062768444 0.072880492
0.39371622 -0.13538858 0.81700003 0.0062779039 -0.044631034 0.068376482 0.081894346
0.39585716 -0.13505715 0.81500006 0.015276939 -0.059201479 0.08192873 0.10222777
0.39896193 -0.13505715 0.81500006 0.022877961 -0.068338931 0.088291168 0.11396904
0.40157336 -0.13489144 0.81400001 0.040441692 -0.069388062 0.077636003 0.1117031
0.40268573 -0.13422859 0.81000006 0.040885255 -0.084236324 0.094715133 0.13318528
0.40476954 -0.13389716 0.80800003 0.0450387 -0.067741424 0.072386906 0.108891
0.40784764 -0.13389716 0.80800003 0.039250791 -0.061269671 0.06852594 0.099951997
0.40990859 -0.13356572 0.80600005 0.032274693 -0.048024088 0.056198135 0.080661014
0.41195431 -0.13323429 0.80400002 0.027209073 -0.026762217 0.027333751 0.046943411
0.41398478 -0.13290286 0.80200005 0.019818664 -0.020934731 0.023612693 0.037263948
0.41855621 -0.12958857 0.78200006 -0.022053882 0.017285854 -0.022146612 0.035716202
0.29423812 -0.14976192 0.92500007 0.006127879 -0.046127886 0.043287933 0.063554525
0.29776192 -0.14976192 0.92500007 0.017699361 -0.049225241 0.038497567 0.064949632
0.29965717 -0.14895239 0.92000002 0.0366548 -0.057363838 0.035234898 0.076653004
0.30217335 -0.14846668 0.91700006 0.047812223 -0.056031048 0.02615872 0.078164987
0.30566669 -0.14846668 0.91700006 0.056778088 -0.062564611 0.02491197 0.088083416
0.30848575 -0.14814287 0.91500002 0.05466257 -0.061867386 0.025624722 0.086441867
0.31128955 -0.14781906 0.91300005 0.041584939 -0.06085512 0.035378337 0.081757441
0.31373334 -0.14733334 0.91000003 0.012952685 -0.067446411 0.06189537 0.092454463
0.31545717 -0.14652382 0.90500003 -0.011779174 -0.060649335 0.07395193 0.096363783
0.31890479 -0.14652382 0.90500003 -0.017065197 -0.05946824 0.074653268 0.096957736
0.32164001 -0.14620002 0.90300006 -0.02483733 -0.06012398 0.079535842 0.10275085
0.32436001 -0.1458762 0.90100002 -0.024138018 -0.064593017 0.084133416 0.10878113
0.32779241 -0.1458762 0.90100002 -0.017070562 -0.07514593 0.090108484 0.11856583
0.33012193 -0.14539048 0.89800006 -0.015421465 -0.081900328 0.098925263 0.12935105
0.33354288 -0.14539048 0.89800006 -0.00086577237 -0.084060878 0.093071401 0.12541637
0.33621335 -0.14506668 0.89600003 0.016902417 -0.087620556 0.089178979 0.12615842
0.33886859 -0.14474286 0.89400005 0.030061126 -0.087488353 0.082606673 0.12402317
0.34112573 -0.14425716 0.89100003 0.035113439 -0.089258879 0.082688004 0.12663889
0.34452003 -0.14425716 0.89100003 0.03674981 -0.088041037 0.080213815 0.12464361
0.34713337 -0.14393334 0.88900006 0.02519621 -0.08857125 0.091299832 0.12967411
0.34973145 -0.14360954 0.88700002 0.033727497 -0.08589375 0.087179005 0.12694667
0.35191622 -0.14312382 0.88400006 0.046408355 -0.083837003 0.07991232 0.12477322
0.35448003 -0.1428 0.88200003 0.05400975 -0.08395341 0.075924084 0.12541808
0.3570286 -0.1424762 0.88000005 0.058726668 -0.081406951 0.070876494 0.12287958
0.36038098 -0.1424762 0.88000005 0.062597767 -0.079590261 0.065913647 0.12082094
0.35298669 -0.13826668 0.85400003 0.038217172 -0.040455878 0.045092508 0.07162796
0.35540575 -0.13794287 0.85200006 0.037645504 -0.0385544 0.042254731 0.068476915
0.35780954 -0.13761906 0.85000002 0.041256607 -0.037947893 0.037880838 0.067654327
0.35722479 -0.13616191 0.84100002 0.044565827 -0.027005732 0.014689133 0.054140493
0.35957146 -0.13583811 0.83900005 0.047090024 -0.025910407 0.0097449571 0.054624021
0.36363241 -0.13616191 0.84100002 0.044500485 -0.026569933 0.013490349 0.053555988
0.36683622 -0.13616191 0.84100002 0.038492784 -0.025301278 0.016663969 0.048985068
0.36916003 -0.13583811 0.83900005 0.029806286 -0.017506689 0.0095390975 0.035859354
0.37058097 -0.13519049 0.83500004 0.024838001 -0.015513808 0.009937197 0.030924948
0.3777962 -0.13324763 0.82300001 -0.0058926493 -0.018391669 0.036040708 0.040888991
0.38000575 -0.13292381 0.82100004 -0.017181695 -0.023465663 0.050566167 0.058333397
0.38220003 -0.13260001 0.81900007 -0.026866704 -0.025158107 0.05861944 0.069216967
0.38437906 -0.13227619 0.81700003 -0.027534455 -0.034927905 0.073582083 0.085979231
0.38654289 -0.13195239 0.81500006 -0.021294922 -0.045326382 0.08424738 0.098008037
0.38964763 -0.13195239 0.81500006 -0.013550371 -0.05233857 0.088877618 0.10402966
0.39275241 -0.13195239 0.81500006 -3.4332275e-05 -0.056250393 0.086177796 0.10291123
0.39537147 -0.13179049 0.81400001 0.012047455 -0.059583366 0.083494142 0.10327919
0.3984724 -0.13179049 0.81400001 0.025795981 -0.062620133 0.07867758 0.10381173
0.39960003 -0.13114287 0.81000006 0.029165983 -0.077076048 0.09339577 0.12455578
0.40069717 -0.13049525 0.80600005 0.033408597 -0.065770209 0.078228861 0.10752492
0.40376765 -0.13049525 0.80600005 0.039610624 -0.06831786 0.077078044 0.11035106
0.40481907 -0.12984763 0.80200005 0.040831953 -0.025702387 0.012714192 0.049895007
0.40685716 -0.12952381 0.80000001 0.033749104 -0.01399982 -0.0025797635 0.03662857
0.40888003 -0.12920001 0.79800004 0.038345635 -0.0053175092 -0.027273118 0.047354899
0.41192004 -0.12920001 0.79800004 0.035708383 -0.007660538 -0.018800661 0.041075993
0.29071429 -0.1462381 0.92500007 -0.015617639 -0.039575398 0.052687585 0.067720778
0.29328382 -0.14576381 0.92200005 0.0040242076 -0.05229634 0.053388804 0.074842945
0.2967962 -0.14576381 0.92200005 0.011303201 -0.045666903 0.041586012 0.062790319
0.29965717 -0.14544763 0.92000002 0.025343478 -0.042636544 0.029622585 0.057772521
0.3015143 -0.14465715 0.91500002 0.036200687 -0.052427739 0.034241706 0.072330162
0.30433336 -0.14434096 0.91300005 0.05050832 -0.05561623 0.027303278 0.079935752
0.30680001 -0.14386667 0.91000003 0.044534907 -0.058729857 0.036708027 0.082340956
0.3095848 -0.14355049 0.90800005 0.030846983 -0.06425339 0.052570254 0.08856447
0.31200954 -0.1430762 0.90500003 0.010460153 -0.059539586 0.061994851 0.086589478
0.31545717 -0.1430762 0.90500003 -0.012448356 -0.060305715 0.074489117 0.096645586
0.31749526 -0.14244382 0.90100002 -0.022917122 -0.068399459 0.092168748 0.11704169
0.32092765 -0.14244382 0.90100002 -0.026641607 -0.067683637 0.090484142 0.11609578
0.32328001 -0.14196953 0.89800006 -0.03036125 -0.077456445 0.10619205 0.13490018
0.32670099 -0.14196953 0.89800006 -0.026655331 -0.079592466 0.10590005 0.13513063
0.32938668 -0.14165334 0.89600003 -0.018410876 -0.082259119 0.10548002 0.13502428
0.33205718 -0.14133716 0.89400005 0.00061380863 -0.080888063 0.096597254 0.12599319
0.33546287 -0.14133716 0.89400005 0.012932435 -0.084867001 0.092490286 0.12619077
0.33773145 -0.14086287 0.89100003 0.030694395 -0.093339801 0.091802195 0.13446973
0.34036002 -0.14054668 0.88900006 0.038349986 -0.099739224 0.095011443 0.14298885
0.34374669 -0.14054668 0.88900006 0.034592837 -0.096667111 0.095376134 0.14013493
0.3463524 -0.14023049 0.88700002 0.033055589 -0.098680943 0.10147516 0.14535408
0.34854859 -0.1397562 0.88400006 0.032358691 -0.08302784 0.090355918 0.12690507
0.35032383 -0.13912381 0.88000005 0.04911916 -0.084459752 0.08462733 0.12925914
0.3536762 -0.13912381 0.88000005 0.056425333 -0.084647477 0.078591704 0.1285522
0.34810287 -0.13564572 0.85800004 -0.035118446 -0.016982436 0.059125945 0.07083492
0.35055241 -0.13532953 0.85600007 0.016600162 -0.018944144 0.025667757 0.035962198
0.35216004 -0.13469715 0.85200006 0.018050551 -0.027548641 0.040361807 0.052094392
0.35457146 -0.13438097 0.85000002 0.033524126 -0.035101146 0.040375635 0.063135959
0.35696763 -0.13406476 0.84800005 0.038680196 -0.032901794 0.031477928 0.059745677
0.35807431 -0.1332743 0.84300005 0.044352069 -0.027663976 0.016327336 0.054762974
0.3604286 -0.1329581 0.84100002 0.046930239 -0.026200235 0.010508031 0.054766033
0.36276764 -0.13264191 0.83900005 0.044086918 -0.02252537 0.0059009641 0.049858499
0.36421907 -0.13200954 0.83500004 0.043325156 -0.020017952 0.00082594156 0.047733318
0.36564001 -0.13137715 0.83100003 0.03727144 -0.020774394 0.0069989115 0.043240264
0.3670305 -0.13074477 0.82700002 0.024998859 -0.022404253 0.019324467 0.038734075
0.3683905 -0.13011239 0.82300001 0.025309533 -0.022066712 0.017580763 0.037902448
0.37062287 -0.12979619 0.82100004 0.014725387 -0.025446802 0.030877993 0.042635985
0.37375051 -0.12979619 0.82100004 0.0032262057 -0.027626187 0.042552575 0.050836369
0.37596002 -0.12948 0.81900007 -0.0078570247 -0.036254048 0.062304735 0.072511852
0.37815431 -0.12916382 0.81700003 -0.017492786 -0.039209127 0.07274951 0.08447393
0.38033336 -0.12884763 0.81500006 -0.031432822 -0.044823527 0.087111816 0.10288654
0.38343811 -0.12884763 0.81500006 -0.032109499 -0.048841029 0.093121335 0.10994566
0.38606858 -0.12868953 0.81400001 -0.027523413 -0.05807063 0.10195789 0.12052032
0.38916954 -0.12868953 0.81400001 -0.010316536 -0.059577197 0.095548719 0.11307268
0.39227051 -0.12868953 0.81400001 -0.0059399158 -0.05610624 0.089465424 0.10576982
0.39440003 -0.12837334 0.81200004 -0.0009547472 -0.063553512 0.09506762 0.11435827
0.39749336 -0.12837334 0.81200004 0.013125107 -0.068478495 0.093123287 0.11633366
0.39960003 -0.12805715 0.81000006 0.027556404 -0.068527788 0.08448036 0.11221562
0.39925906 -0.12600191 0.79700005 0.023761451 0.0069048703 -0.041614041 0.048415001
0.40380955 -0.1264762 0.80000001 0.037938759 -0.011628896 -0.012637213 0.041644685
0.40228003 -0.12505335 0.79100001 0.0066218972 0.018941045 -0.057957426 0.061332501
0.40529335 -0.12505335 0.79100001 -0.00037026405 0.013950199 -0.034120098 0.036863618
0.40560004 -0.12331429 0.78000003 -0.03409937 0.012149602 0.0019600242 0.036252197
0.40700004 -0.12284001 0.77700001 -0.036700398 0.00182423 0.026098818 0.045071002
0.40996003 -0.12284001 0.77700001 -0.022122756 -0.0064483583 0.031855553 0.03931633
0.41185716 -0.12252381 0.77500004 -0.024528995 -0.0067125857 0.034028977 0.04248178
0.41480955 -0.12252381 0.77500004 -0.029724717 -0.016795456 0.055751383 0.065374792
0.28000003 -0.15428573 1 -0.03096287 -0.011577487 0.047181532 0.057609327
0.2821067 -0.15336001 0.99400002 -0.03096287 -0.011577487 0.047181532 0.057609327
0.28470668 -0.14148001 0.91700006 -0.025263667 -0.04881373 0.075532526 0.093414105
0.28820002 -0.14148001 0.91700006 -0.01342009 -0.044333875 0.062017471 0.077406444
0.29169336 -0.14148001 0.91700006 0.00010530651 -0.041317046 0.049405277 0.064404897
0.2951867 -0.14148001 0.91700006 0.0083944201 -0.042546421 0.044649035 0.062243074
0.29868001 -0.14148001 0.91700006 0.02042748 -0.046379805 0.039679855 0.064365044
0.29986668 -0.14040001 0.91000003 0.026173145 -0.041080117 0.032466233 0.058537729
0.30333334 -0.14040001 0.91000003 0.034288064 -0.04884699 0.03447485 0.068921804
0.3051143 -0.13962857 0.90500003 0.021636546 -0.038180649 0.035100639 0.056195702
0.30856192 -0.13962857 0.90500003 0.010125875 -0.038861752 0.042483509 0.058460392
0.31132001 -0.13932002 0.90300006 -0.016240224 -0.039213091 0.060704589 0.074070632
0.31301716 -0.13854858 0.89800006 -0.035868257 -0.035176426 0.069917709 0.086095288
0.31643811 -0.13854858 0.89800006 -0.048174024 -0.042984277 0.083624378 0.10564763
0.31985906 -0.13854858 0.89800006 -0.046550319 -0.048900187 0.088407248 0.11123849
0.32328001 -0.13854858 0.89800006 -0.038734704 -0.067907512 0.10315615 0.12943338
0.32597336 -0.13824001 0.89600003 -0.027453452 -0.085137695 0.1157507 0.14628856
0.32938668 -0.13824001 0.89600003 -0.017647833 -0.079447597 0.10503988 0.13287868
0.33094287 -0.13746858 0.89100003 -0.010084525 -0.0921987 0.11641523 0.14884491
0.33268574 -0.13145144 0.85200006 -0.028586403 0.0032851994 0.01604718 0.032946728
0.33672002 -0.13176002 0.85400003 -0.024350464 -0.0023209453 0.02499409 0.034971938
0.33917716 -0.13145144 0.85200006 -0.028954625 -0.00090098381 0.025156185 0.038366854
0.34242287 -0.13145144 0.85200006 -0.023143277 -0.0022505522 0.023713142 0.033211283
0.34566858 -0.13145144 0.85200006 -0.016161323 -0.013795853 0.041350111 0.046490274
0.34809527 -0.13114287 0.85000002 -0.013116717 -0.012263626 0.035779342 0.040032562
0.35050669 -0.1308343 0.84800005 0.0066118687 -0.018108755 0.031879127 0.037254833
0.35248575 -0.13037144 0.84500003 0.018000007 -0.015987396 0.018048212 0.030088786
0.35552573 -0.12913716 0.83700001 0.029433653 -0.012100071 -0.0011860728 0.031845853
0.35957146 -0.12944572 0.83900005 0.03879343 -0.018817693 0.0037746131 0.043281443
0.36300004 -0.12728572 0.82500005 0.021631971 -0.019683808 0.016687661 0.033673026
0.36436763 -0.12666857 0.82100004 0.020638511 -0.025346011 0.025863111 0.041680556
0.36660004 -0.12636001 0.81900007 0.016279459 -0.034909695 0.042910457 0.057662942
0.36972001 -0.12636001 0.81900007 0.014734864 -0.034067839 0.043075234 0.056861319
0.37192956 -0.12605144 0.81700003 0.003754288 -0.038603783 0.057769969 0.06958244
0.37504193 -0.12605144 0.81700003 -0.010767177 -0.038538247 0.067189544 0.078202069
0.37722859 -0.12574287 0.81500006 -0.02555038 -0.040922701 0.078971192 0.092541553
0.37893337 -0.12528001 0.81200004 -0.032253578 -0.043663383 0.086807445 0.10238319
0.3820267 -0.12528001 0.81200004 -0.040388748 -0.051644921 0.10042718 0.11993359
0.38417146 -0.12497143 0.81000006 -0.033746183 -0.049238265 0.094940886 0.11214715
0.38534477 -0.1243543 0.80600005 -0.030204386 -0.021660477 0.057210043 0.068223678
0.3913067 -0.12528001 0.81200004 -0.013942495 -0.057627469 0.09530054 0.11223863
0.39245716 -0.12466287 0.80800003 -0.0016742945 -0.031430423 0.054164797 0.06264583
0.39651433 -0.12497143 0.81000006 0.0061386377 -0.048737824 0.07337074 0.088296793
0.39960003 -0.12497143 0.81000006 0.027240008 -0.05465278 0.067296028 0.090871885
0.39224574 -0.12173144 0.78900003 0.0066468865 0.017351091 -0.051707745 0.05494481
0.39475051 -0.12157715 0.78800005 -0.011451587 0.019520253 -0.036053389 0.042567898
0.3977524 -0.12157715 0.78800005 -0.014583588 0.02044937 -0.035681739 0.043635357
0.39965716 -0.12034287 0.78000003 -0.027840212 0.0031814873 0.017047822 0.03279981
0.40108001 -0.11988001 0.77700001 -0.029424235 0.0062226951 0.012165159 0.032442238
0.40595239 -0.11957144 0.77500004 -0.029183418 0.0032325089 0.018324643 0.034610886
0.40784955 -0.11926287 0.77300006 -0.039993629 0.0052298903 0.022354737 0.046114817
0.41079432 -0.11926287 0.77300006 -0.044065967 -0.003411293 0.041500166 0.060627632
0.41480955 -0.11957144 0.77500004 -0.03096357 -0.016392261 0.056028143 0.066080265
0.26857144 -0.1504762 1 -0.0073323995 -0.020414233 0.043615013 0.048711132
0.27238098 -0.1504762 1 -0.015039399 -0.011211216 0.034612834 0.039369065
0.27370477 -0.14912191 0.99100006 -0.011211723 -0.023624182 0.051428631 0.057694964
0.27916002 -0.15002477 0.99700004 -0.032726184 -0.01299578 0.051594421 0.062465012
0.28125525 -0.14912191 0.99100006 -0.033979267 -0.012476861 0.051631004 0.063055709
0.27862859 -0.13843811 0.92000002 -0.061079815 -0.032066464 0.085606441 0.10994301
0.28213334 -0.13843811 0.92000002 -0.058310732 -0.028730243 0.076946959 0.10072935
0.28470668 -0.13798667 0.91700006 -0.039469898 -0.030143559 0.066228911 0.082781494
0.28820002 -0.13798667 0.91700006 -0.023906544 -0.037641525 0.063926786 0.07794255
0.29105717 -0.13768572 0.91500002 -0.008152172 -0.039542556 0.054843426 0.068101928
0.29454288 -0.13768572 0.91500002 0.0061519593 -0.039084941 0.044213742 0.059332404
0.29640001 -0.13693334 0.91000003 0.0047678053 -0.030174345 0.036545336 0.047631763
0.29920763 -0.13663238 0.90800005 0.01999715 -0.040233374 0.038172692 0.058955614
0.30166668 -0.13618097 0.90500003 0.019502088 -0.027289957 0.024016663 0.041253768
0.30444002 -0.13588001 0.90300006 0.012088537 -0.030932605 0.035408512 0.048546076
0.30719811 -0.13557905 0.90100002 -0.0035842806 -0.020392984 0.033119231 0.039058983
0.30890667 -0.13482668 0.89600003 -0.023840532 -0.0020129979 0.02106002 0.031873934
0.31162289 -0.13452572 0.89400005 -0.059038714 0.0065676272 0.028190345 0.065752558
0.31502858 -0.13452572 0.89400005 -0.066298656 -0.0041327775 0.046854317 0.081289105
0.3184343 -0.13452572 0.89400005 -0.059600055 -0.020732969 0.065511897 0.090960607
0.32328001 -0.13512763 0.89800006 -0.05186294 -0.038632184 0.080453694 0.10322309
0.32670099 -0.13512763 0.89800006 -0.029957369 -0.077045143 0.10836579 0.1362958
0.32938668 -0.13482668 0.89600003 -0.01829274 -0.085712671 0.11261228 0.14269832
0.32345527 -0.12971048 0.86200005 0.01411128 -0.017469615 0.025360808 0.033874568
0.33190477 -0.12790477 0.85000002 -0.028915912 0.0041218102 0.014441088 0.032583192
0.33593145 -0.12820572 0.85200006 -0.028442129 0.00073122978 0.02134344 0.035567284
0.3363905 -0.12715238 0.84500003 -0.03738746 0.0085906684 0.0096407682 0.039554596
0.33719811 -0.12624954 0.83900005 -0.043705434 0.014050335 0.0029607713 0.046003729
0.34120575 -0.12655048 0.84100002 -0.035026476 0.0086494684 0.0077779293 0.036907502
0.3589848 -0.12384191 0.82300001 0.015378803 -0.020394027 0.021886677 0.033637039
0.36124003 -0.12354096 0.82100004 0.015905827 -0.029339314 0.034943268 0.048320003
0.36348003 -0.12324001 0.81900007 0.014597058 -0.039411575 0.049912989 0.065250695
0.36570477 -0.12293906 0.81700003 0.011371449 -0.029684931 0.039338157 0.050576631
0.36881718 -0.12293906 0.81700003 0.007509768 -0.035239547 0.0500222 0.061647732
0.37056383 -0.12248763 0.81400001 -0.00071941316 -0.031564832 0.051410809 0.06033181
0.3736648 -0.12248763 0.81400001 -0.01305005 -0.038706452 0.068901688 0.080099538
0.37584004 -0.12218668 0.81200004 -0.020750761 -0.03028512 0.062790409 0.072735257
0.3770667 -0.12158477 0.80800003 -0.041038916 -0.018804163 0.058161944 0.07362473
0.37920383 -0.12128381 0.80600005 -0.048806667 -0.017989367 0.06138587 0.080460757
0.38132575 -0.12098286 0.80400002 -0.041918382 0.0052390993 0.020556867 0.046980675
0.38630098 -0.12158477 0.80800003 -0.026679054 -0.021984905 0.05549936 0.065385677
0.39018098 -0.1163181 0.77300006 -0.034269512 0.014409393 -0.0002527386 0.037176523
0.39312574 -0.1163181 0.77300006 -0.032550901 0.017265946 -0.0085102469 0.03781664
0.39607051 -0.1163181 0.77300006 -0.042019457 0.017555952 -0.0016068518 0.04556784
0.39901528 -0.1163181 0.77300006 -0.038469851 0.012980729 0.0056408197 0.040990822
0.40196002 -0.1163181 0.77300006 -0.035288602 0.0096209943 0.010276943 0.037992954
0.40438098 -0.11616763 0.77200001 -0.034138739 0.0085834861 0.011685133 0.037090052
0.40626669 -0.11586668 0.77000004 -0.037307963 0.011821657 0.0071168691 0.039777953
0.40920001 -0.11586668 0.77000004 -0.055145666 0.0036311746 0.036124676 0.066024408
0.26396763 -0.14622667 0.99700004 -0.011328369 -0.022170782 0.050363272 0.056181267
0.26696002 -0.14578667 0.99400002 -0.012538105 -0.021814495 0.05043146 0.056359638
0.26992953 -0.14534667 0.99100006 -0.014140397 -0.021208704 0.050826192 0.056860019
0.2728762 -0.14490667 0.98800004 -0.010503784 -0.021962523 0.048960686 0.054679342
0.27664003 -0.14490667 0.98800004 -0.021785364 -0.027085781 0.065442741 0.074101239
0.27512383 -0.13493334 0.92000002 -0.06689772 -0.022645891 0.084526643 0.11014942
0.27862859 -0.13493334 0.92000002 -0.062024266 -0.033427179 0.089467615 0.11388081
0.28121334 -0.13449334 0.91700006 -0.0616384 -0.019049227 0.071194112 0.096076876
0.28408572 -0.13420001 0.91500002 -0.045341775 -0.021882057 0.062454075 0.080219775
0.28694287 -0.13390668 0.91300005 -0.034589469 -0.0099932849 0.040322483 0.054057375
0.29042098 -0.13390668 0.91300005 -0.019018233 -0.020064116 0.041387752 0.049771555
0.29389906 -0.13390668 0.91300005 -0.0062945783 -0.031437993 0.045738608 0.055856865
0.29640001 -0.13346668 0.91000003 0.0013829768 -0.027404606 0.036419362 0.045599289
0.3031067 -0.13038668 0.88900006 -0.0029558837 0.016470909 -0.032783046 0.036807012
0.30649334 -0.13038668 0.88900006 -0.03449145 0.026924521 -0.027119845 0.051478889
