# .PCD v0.7 - Point Cloud Data file format
VERSION 0.7
FIELDS x y z normal_x normal_y normal_z curvature
SIZE 4 4 4 4 4 4 4
TYPE F F F F F F F
COUNT 1 1 1 1 1 1 1
WIDTH 104
HEIGHT 1
VIEWPOINT 0 0 0 1 0 0 0
POINTS 104
DATA ascii
0.024480002 0.10800001 0.75600004 -0.013618952 -0.095402345 0.046201289 0.10687208
0.018720001 0.11088001 0.75600004 -0.045905896 -0.069833994 0.033363432 0.08998476
0.021600001 0.11088001 0.75600004 -0.040584762 -0.066401243 0.032483846 0.084329404
0.024480002 0.11088001 0.75600004 -0.021550054 -0.064125463 0.033152223 0.07533624
0.027360002 0.11088001 0.75600004 0.018909659 -0.077167079 0.039594114 0.088769518
0.030240001 0.11088001 0.75600004 0.04557788 -0.09812285 0.046291441 0.11767895
0.033076193 0.11073334 0.75500005 0.068288125 -0.11877209 0.050887495 0.14614929
0.015840001 0.11376001 0.75600004 -0.076733567 -0.080893174 0.033228099 0.11634368
0.018720001 0.11376001 0.75600004 -0.045621838 -0.060931385 0.029466182 0.081622556
0.021600001 0.11376001 0.75600004 -0.035830908 -0.051449984 0.026134193 0.067926072
0.024480002 0.11376001 0.75600004 -0.019670686 -0.046383545 0.025004357 0.05624577
0.027360002 0.11376001 0.75600004 -0.00087472517 -0.04058367 0.022917122 0.046615385
0.030240001 0.11376001 0.75600004 0.023115322 -0.056068107 0.030305535 0.06779658
0.033120003 0.11376001 0.75600004 0.05103891 -0.080326065 0.039081603 0.10288158
0.036000002 0.11376001 0.75600004 0.090093382 -0.085308522 0.035855711 0.12915105
0.015819049 0.11648572 0.75500005 -0.077517234 -0.072623163 0.02962777 0.11027624
0.018695239 0.11648572 0.75500005 -0.041866034 -0.045565501 0.022621304 0.065884016
0.021600001 0.11664001 0.75600004 -0.025246825 -0.027428865 0.014802605 0.040110622
0.024480002 0.11664001 0.75600004 -0.020723505 -0.026437327 0.014588952 0.036622856
0.027360002 0.11664001 0.75600004 -0.010729032 -0.03233926 0.018349946 0.038699619
0.030240001 0.11664001 0.75600004 0.026833622 -0.029096022 0.016701639 0.042960059
0.033076193 0.11648572 0.75500005 0.052039348 -0.031008303 0.015986711 0.062651284
0.035809524 0.11602286 0.75200003 0.083188131 -0.046695635 0.019938529 0.097459182
0.0099733341 0.11825524 0.74800003 -0.12153526 -0.079552397 0.022068352 0.14692315
0.012908572 0.11904572 0.75300002 -0.096691206 -0.063080311 0.021219224 0.11738216
0.015777145 0.11904572 0.75300002 -0.072275028 -0.04962641 0.020026982 0.08993075
0.018695239 0.11936191 0.75500005 -0.033682369 -0.021189839 0.01056987 0.041173212
0.021571429 0.11936191 0.75500005 -0.024792446 -0.022370785 0.012020081 0.035490841
0.032988574 0.11904572 0.75300002 0.035491105 -0.011459827 0.0062800348 0.037820432
0.035714287 0.11857144 0.75000006 0.071715787 -0.027684703 0.011806637 0.077775277
0.0071238098 0.12110477 0.74800003 -0.064662486 -0.020592257 0.0061318576 0.068138666
0.0099733341 0.12110477 0.74800003 -0.054978382 -0.0036811233 -0.0024313331 0.055155095
0.012857144 0.12142858 0.75000006 -0.077980772 -0.034762755 0.011359721 0.086130679
0.015714286 0.12142858 0.75000006 -0.054301187 -0.01663138 0.0054110587 0.057048239
0.032988574 0.1219143 0.75300002 0.035491105 -0.011459827 0.0062800348 0.037820432
0.035809524 0.12175239 0.75200003 0.072844721 -0.016342089 0.0052232742 0.074837826
0.038674287 0.12175239 0.75200003 0.10700848 -0.022867367 0.0025216937 0.1094536
0.0099733341 0.1239543 0.74800003 -0.046035629 -0.0035501122 -0.0012518167 0.046189278
0.012822858 0.1239543 0.74800003 -0.054272272 -0.0068389475 -0.0004272759 0.054703139
0.015672382 0.1239543 0.74800003 -0.037338398 0.0041965544 -0.0051503778 0.037924841
0.032944765 0.12461715 0.75200003 0.032583214 0.0074183047 -0.0053238571 0.033838447
0.035714287 0.12428572 0.75000006 0.074069858 0.0057583451 -0.0086494684 0.074795157
0.038571432 0.12428572 0.75000006 0.10282259 0.0032250583 -0.012520462 0.10363227
0.0014190477 0.12629525 0.74500006 0.022542221 -0.024806455 0.014563084 0.036545798
0.0099600004 0.1266343 0.74700004 -0.052154016 -0.015788108 0.0053756833 0.054755855
0.012822858 0.12680382 0.74800003 -0.045205161 -0.008200407 0.0017210245 0.04597516
0.032857146 0.12714286 0.75000006 0.040796019 0.013934195 -0.010179043 0.044295482
0.03561905 0.12680382 0.74800003 0.090791404 0.0078273118 -0.012942821 0.092042722
0.038468573 0.12680382 0.74800003 0.11496272 0.010077506 -0.020026356 0.1171283
-0.0014190477 0.12913334 0.74500006 0.013605691 -0.046076506 0.025887072 0.0545738
0.0014152381 0.12878667 0.74300003 0.026921794 -0.044207126 0.024612874 0.05731358
0.004257143 0.12913334 0.74500006 0.0065345685 -0.031288981 0.01831153 0.036837656
0.0070952387 0.12913334 0.74500006 -0.018000662 -0.024012938 0.013535529 0.032921962
0.0099333338 0.12913334 0.74500006 -0.03773915 -0.022270992 0.010902733 0.045156505
0.032638099 0.12913334 0.74500006 0.045703277 0.03352952 -0.02456823 0.061778769
0.03561905 0.12965333 0.74800003 0.094823308 0.024125397 -0.025137544 0.10102173
0.038211431 0.12878667 0.74300003 0.13853031 0.03109777 -0.04244566 0.14818689
-0.0042457148 0.13161716 0.74300003 0.020728882 -0.060131088 0.032412827 0.071386456
-0.0014152381 0.13161716 0.74300003 0.035314873 -0.053347096 0.028636009 0.070093326
0.0014152381 0.13161716 0.74300003 0.026921794 -0.044207126 0.024612874 0.05731358
0.0042457148 0.13161716 0.74300003 0.0212382 -0.039412916 0.022387981 0.050056577
0.0070761908 0.13161716 0.74300003 0.010319891 -0.035664499 0.020626277 0.042472344
0.0099066673 0.13161716 0.74300003 -0.005988487 -0.025749594 0.015064657 0.030427741
0.032550476 0.13161716 0.74300003 0.029902913 0.057449698 -0.042515725 0.077474117
0.035380956 0.13161716 0.74300003 0.13641562 0.035497099 -0.045198858 0.1480277
0.038211431 0.13161716 0.74300003 0.12262261 0.036540747 -0.041660845 0.13456284
-0.0042457148 0.13444763 0.74300003 0.022362078 -0.062213123 0.033285379 0.074016564
-0.0014152381 0.13444763 0.74300003 0.04172238 -0.05592683 0.02940914 0.075719647
0.0014152381 0.13444763 0.74300003 0.035129502 -0.053892732 0.028888226 0.070519768
0.0042457148 0.13444763 0.74300003 0.031005036 -0.050180614 0.027405083 0.06504187
0.0070666671 0.13426667 0.74200004 0.027053533 -0.044229418 0.024661452 0.057413608
0.0098933335 0.13426667 0.74200004 0.012362158 -0.035081461 0.020347208 0.042397413
0.029680002 0.13426667 0.74200004 0.018767962 0.065009177 -0.04825303 0.083107062
0.032550476 0.13444763 0.74300003 0.037034757 0.068789989 -0.052487135 0.094119795
0.035380956 0.13444763 0.74300003 0.11066389 0.050287038 -0.049044073 0.1310748
-0.0042400002 0.13709334 0.74200004 0.034750819 -0.070123941 0.036220849 0.086237676
-0.0014133335 0.13709334 0.74200004 0.045088768 -0.058421612 0.03030774 0.079778701
0.0014133335 0.13709334 0.74200004 0.04172238 -0.05592683 0.02940914 0.075719647
0.0042285719 0.13672382 0.74000001 0.037546858 -0.052998289 0.02838096 0.070880637
0.0070666671 0.13709334 0.74200004 0.031005036 -0.050180614 0.027405083 0.06504187
0.0098533342 0.13653906 0.73900002 0.033669818 -0.045679942 0.025058717 0.06203429
0.012634287 0.13616954 0.73700005 0.034414891 -0.043900892 0.023945719 0.060704783
0.015420954 0.13598476 0.73600006 0.027286321 -0.048335791 0.026457191 0.061488818
0.029560002 0.13653906 0.73900002 0.024029505 0.075424016 -0.05781126 0.098022148
0.032375239 0.13653906 0.73900002 0.0090308199 0.074379593 -0.056572676 0.093884759
-0.0042400002 0.13992001 0.74200004 0.045165241 -0.080755666 0.039934933 0.10077785
-0.0014095239 0.13954286 0.74000001 0.057397421 -0.068874717 0.033830881 0.095826499
0.0014095239 0.13954286 0.74000001 0.044944845 -0.057373002 0.029834867 0.078751631
0.0042285719 0.13954286 0.74000001 0.041180141 -0.05409202 0.028650701 0.07377407
0.0070476197 0.13954286 0.74000001 0.036793448 -0.051260754 0.027597696 0.068869844
0.0098533342 0.13935429 0.73900002 0.037861265 -0.050884172 0.027347744 0.069069333
0.012668572 0.13935429 0.73900002 0.035469621 -0.049270555 0.026506901 0.066244222
0.015483811 0.13935429 0.73900002 0.030956805 -0.046080172 0.025199056 0.06096473
0.029560002 0.13935429 0.73900002 0.023773212 0.06148985 -0.045347154 0.080015823
0.032375239 0.13935429 0.73900002 0.038179237 0.070014685 -0.053674877 0.096128576
0.0014076191 0.14216954 0.73900002 0.060118213 -0.079971194 0.038193733 0.1070904
0.0042228573 0.14216954 0.73900002 0.048670195 -0.067954749 0.034358025 0.090372063
0.0070476197 0.14236191 0.74000001 0.048670195 -0.067954749 0.034358025 0.090372063
0.0098533342 0.14216954 0.73900002 0.042174332 -0.068057954 0.034929454 0.08735346
0.012668572 0.14216954 0.73900002 0.039177123 -0.061888933 0.032131493 0.079984501
0.0014019049 0.1443962 0.73600006 0.07099507 -0.096609741 0.043295741 0.12746868
0.0042228573 0.14498477 0.73900002 0.07065998 -0.09836784 0.044068962 0.12888421
0.0070476197 0.14518096 0.74000001 0.066693045 -0.086956069 0.040285945 0.11675734
0.009866667 0.14518096 0.74000001 0.063103437 -0.083284318 0.039274931 0.11162814
