# .PCD v0.7 - Point Cloud Data file format
VERSION 0.7
FIELDS x y z normal_x normal_y normal_z curvature
SIZE 4 4 4 4 4 4 4
TYPE F F F F F F F
COUNT 1 1 1 1 1 1 1
WIDTH 77
HEIGHT 1
VIEWPOINT 0 0 0 1 0 0 0
POINTS 77
DATA ascii
-0.09743429 -0.01156 0.86700004 -0.046383291 0.063541859 -0.025210679 0.082610868
-0.093914293 -0.011533334 0.86500007 -0.046668693 0.063575774 -0.025115192 0.082768463
-0.090828575 -0.01156 0.86700004 -0.045598455 0.064849421 -0.026417136 0.083561547
-0.09743429 -0.0082571432 0.86700004 -0.073439501 0.093292832 -0.040872157 0.12556849
-0.093914293 -0.0082380958 0.86500007 -0.068419866 0.10500731 -0.052427739 0.13585463
-0.09061905 -0.0082380958 0.86500007 -0.055335276 0.099676132 -0.051282704 0.12500896
-0.10073715 -0.0049542859 0.86700004 -0.066231728 0.10458905 -0.05267933 0.13453855
-0.097209528 -0.0049428577 0.86500007 -0.063663952 0.10635826 -0.055050939 0.13563105
-0.093588576 -0.0049257148 0.86200005 -0.073857546 0.10310432 -0.049390793 0.13610616
-0.090095244 -0.0049142861 0.86000001 -0.077835068 0.10059363 -0.046215296 0.13532639
-0.086819053 -0.0049142861 0.86000001 -0.076210074 0.10279825 -0.048554033 0.13686837
-0.099923819 -0.0016380954 0.86000001 -0.01329045 0.079126582 -0.048312604 0.09365768
-0.096647628 -0.0016380954 0.86000001 -0.018646762 0.077949688 -0.045265019 0.092047691
-0.093371436 -0.0016380954 0.86000001 -0.067511104 0.088196367 -0.038596541 0.11758419
-0.089885719 -0.0016342858 0.85800004 -0.076956399 0.088061988 -0.036325097 0.12246107
-0.086617149 -0.0016342858 0.85800004 -0.086241022 0.092387557 -0.038032115 0.13198264
-0.099691436 0.0016342858 0.85800004 -0.0032141805 0.055705786 -0.034444869 0.06557373
-0.096422866 0.0016342858 0.85800004 -0.0040313452 0.055630058 -0.034058005 0.065352142
-0.093154289 0.0016342858 0.85800004 -0.027344391 0.056789562 -0.026281178 0.068289608
-0.089885719 0.0016342858 0.85800004 -0.069772035 0.071134523 -0.025051534 0.1027416
-0.10248001 0.0048800004 0.85400003 -0.0037443042 0.03870675 -0.0223355 0.044845365
-0.099226676 0.0048800004 0.85400003 -0.0059733838 0.041784316 -0.023605376 0.048361395
-0.095748581 0.0048685716 0.85200006 -0.0048948526 0.028696328 -0.015293092 0.032883391
-0.092502862 0.0048685716 0.85200006 -0.0077414215 0.033171013 -0.017163128 0.038142085
-0.089257151 0.0048685716 0.85200006 -0.05245173 0.046039507 -0.011948764 0.070806727
-0.10573334 0.0081333341 0.85400003 0.022583932 0.018245652 -0.019787878 0.035135422
-0.10548572 0.011360001 0.85200006 0.024676666 -0.040928483 0.010729939 0.048981734
-0.10224 0.011360001 0.85200006 0.010779887 -0.048639134 0.019445419 0.053479865
-0.098761909 0.011333334 0.85000002 0.00026358664 -0.043378055 0.020995647 0.048192762
-0.095523819 0.011333334 0.85000002 -0.013073504 -0.033219784 0.020951301 0.041393571
-0.092068575 0.011306668 0.84800005 -0.0087672025 -0.037838891 0.021623403 0.044454664
-0.0888381 0.011306668 0.84800005 -0.030458823 -0.03263171 0.025777638 0.05154663
-0.085607626 0.011306668 0.84800005 -0.035065815 -0.027073801 0.024486035 0.050617862
-0.10622858 0.014708572 0.85800004 0.024244562 -0.073669463 0.023807377 0.081128165
-0.10224 0.014605715 0.85200006 0.01653631 -0.065060362 0.02375868 0.071209371
-0.098761909 0.014571429 0.85000002 0.014304757 -0.057428941 0.021679819 0.06302955
-0.09529905 0.014537144 0.84800005 0.005714193 -0.068312541 0.028897315 0.074392945
-0.092068575 0.014537144 0.84800005 -0.0048826784 -0.05935818 0.029123247 0.066297792
-0.088523813 0.014485715 0.84500003 -0.013027847 -0.073817044 0.036891758 0.083544493
-0.085304767 0.014485715 0.84500003 -0.018685848 -0.077957809 0.039942831 0.089565679
-0.10573334 0.017893335 0.85400003 0.030660838 -0.10339853 0.030766577 0.11215135
-0.10224 0.017851429 0.85200006 0.020829082 -0.083586782 0.028609961 0.090769663
-0.098761909 0.017809525 0.85000002 0.020829082 -0.083586782 0.028609961 0.090769663
-0.09529905 0.017767619 0.84800005 0.012660876 -0.073779702 0.02837193 0.08005441
-0.091742866 0.017704763 0.84500003 0.018138096 -0.10711208 0.036689907 0.11466533
-0.0888381 0.017767619 0.84800005 -0.0088328272 -0.083797395 0.038924962 0.09281797
-0.10176001 0.020998096 0.84800005 0.028344199 -0.090382338 0.027829945 0.098726213
-0.098529533 0.020998096 0.84800005 0.024324581 -0.087068349 0.028378725 0.094751962
-0.09529905 0.020998096 0.84800005 0.024314642 -0.087224081 0.028482407 0.094923593
-0.10176001 0.024228573 0.84800005 0.044259876 -0.080460429 0.017660052 0.093513072
-0.098529533 0.024228573 0.84800005 0.032471687 -0.068407446 0.018528908 0.077957101
-0.09529905 0.024228573 0.84800005 0.034292042 -0.066600502 0.01700604 0.076816514
-0.10176001 0.02745905 0.84800005 0.062798247 -0.065126792 0.0030888021 0.090524353
-0.098529533 0.02745905 0.84800005 0.062377989 -0.061725795 0.001955688 0.087777629
-0.094961911 0.027361907 0.84500003 0.049086124 -0.039777368 -0.00093862414 0.063186772
-0.092502862 0.027588572 0.85200006 0.055453494 -0.069314644 0.0079680085 0.089124069
-0.10200001 0.030761907 0.85000002 0.023905516 -0.026689246 0.004398942 0.036099032
-0.098180957 0.030580955 0.84500003 0.046277344 -0.018582791 -0.0097858608 0.050820034
-0.094961911 0.030580955 0.84500003 0.069674358 -0.029873043 -0.016407669 0.077563696
-0.097948581 0.033720002 0.84300005 -0.022696003 0.023460954 -0.0057941079 0.033152625
-0.097483814 0.036756191 0.83900005 -0.20204011 0.055843025 -0.013278931 0.21003565
-0.094287626 0.036756191 0.83900005 -0.20457114 0.055894107 -0.012447357 0.21243455
-0.10044 0.039857145 0.83700001 -0.036679707 0.055279329 -0.021190464 0.069643669
-0.097019054 0.039761908 0.83500004 -0.0090943277 0.05944635 -0.03260076 0.068406031
-0.094062865 0.039857145 0.83700001 -0.079628065 0.07102865 -0.02241829 0.10903338
-0.1002 0.042942859 0.83500004 -0.015821517 0.065010801 -0.032967329 0.074589342
-0.097019054 0.042942859 0.83500004 -0.017668307 0.06511806 -0.032329082 0.074817784
-0.094287626 0.043148573 0.83900005 -0.015411317 0.060028851 -0.030828685 0.06921979
-0.099960007 0.046013337 0.83300006 -0.19191702 0.049698278 0.0046295822 0.19830152
-0.09678667 0.046013337 0.83300006 -0.19642264 0.054762632 0.0022405386 0.20392601
-0.093838103 0.046123814 0.83500004 -0.19642264 0.054762632 0.0022405386 0.20392601
-0.099720009 0.049068574 0.83100003 -0.21694914 0.026894033 0.016115725 0.21920295
-0.09678667 0.049186669 0.83300006 -0.2273818 0.034048319 0.01109013 0.23018418
-0.099720009 0.052234288 0.83100003 -0.27843109 -0.008532241 0.032540828 0.28045601
-0.096554294 0.052234288 0.83100003 -0.27827433 -0.0084604174 0.032435358 0.28028598
-0.10288572 0.055400003 0.83100003 -0.29706302 -0.022880197 0.043247432 0.30106524
-0.099480003 0.055266671 0.82900006 -0.28068742 -0.023916766 0.036328048 0.28403726
