# .PCD v0.7 - Point Cloud Data file format
VERSION 0.7
FIELDS x y z normal_x normal_y normal_z curvature
SIZE 4 4 4 4 4 4 4
TYPE F F F F F F F
COUNT 1 1 1 1 1 1 1
WIDTH 168
HEIGHT 1
VIEWPOINT 0 0 0 1 0 0 0
POINTS 168
DATA ascii
-0.28063622 0.038761906 0.81400001 -0.049513347 0.56980169 -0.012108296 0.57207704
-0.2778762 0.038809527 0.81500006 -0.05125545 0.55850053 -0.017703742 0.56112689
-0.27477145 0.038809527 0.81500006 -0.056685679 0.5511483 -0.021313101 0.55446547
-0.27066669 0.038666669 0.81200004 -0.035255253 0.53447115 -0.011200041 0.53574973
-0.26757336 0.038666669 0.81200004 -0.01710023 0.52275938 -0.0013358891 0.52304071
-0.25892955 0.038761906 0.81400001 0.014583796 0.48540771 0.018956602 0.4859966
-0.25331432 0.038380954 0.80600005 -0.043340523 0.50587988 0.015766978 0.50797784
-0.25024381 0.038380954 0.80600005 -0.069817737 0.50476867 0.017637759 0.50987941
-0.28304002 0.041760001 0.81200004 -0.062554322 0.56289744 -0.005032897 0.56638491
-0.28063622 0.04186286 0.81400001 -0.058196813 0.55485964 -0.0096122622 0.55798608
-0.27753526 0.04186286 0.81400001 -0.058353219 0.54458535 -0.013373315 0.54786599
-0.27376002 0.041760001 0.81200004 -0.053681329 0.54170084 -0.01003772 0.54444671
-0.27066669 0.041760001 0.81200004 -0.035700887 0.53571755 -0.0053842962 0.53693283
-0.26757336 0.041760001 0.81200004 -0.023831747 0.52815711 -0.00065070391 0.52869493
-0.26448002 0.041760001 0.81200004 -0.0087980628 0.52069139 0.0035396218 0.52077776
-0.26074287 0.041657146 0.81000006 0.0010734722 0.51496875 0.0052852333 0.51499701
-0.25765717 0.041657146 0.81000006 -0.01447773 0.51119524 0.010083079 0.51149958
-0.25331432 0.041451432 0.80600005 -0.053669222 0.50657666 0.016054839 0.50966465
-0.25024381 0.041451432 0.80600005 -0.085123278 0.49368066 0.023620278 0.50152218
-0.24717335 0.041451432 0.80600005 -0.098075554 0.47611618 0.031980991 0.48716342
-0.24410288 0.041451432 0.80600005 -0.1236228 0.46949995 0.035698354 0.48681328
-0.24103239 0.041451432 0.80600005 -0.13235676 0.45772198 0.037821591 0.47797298
-0.28401905 0.044521909 0.80600005 -0.065062605 0.54706407 -0.0014303029 0.55092132
-0.28234288 0.04474286 0.81000006 -0.059910044 0.54680997 -0.0027134418 0.55008882
-0.27994668 0.044853337 0.81200004 -0.058595493 0.53545129 -0.007083267 0.53869444
-0.27685335 0.044853337 0.81200004 -0.057142936 0.53347862 -0.0079608858 0.53658932
-0.27376002 0.044853337 0.81200004 -0.052264906 0.53836346 -0.0061834455 0.54092979
-0.27000001 0.04474286 0.81000006 -0.033406235 0.5348767 -0.0022700131 0.53592372
-0.26625526 0.044632383 0.80800003 -0.025164898 0.52167034 0.0051130652 0.52230197
-0.26317716 0.044632383 0.80800003 -0.012160398 0.51983172 0.0045965016 0.51999426
-0.26009905 0.044632383 0.80800003 -0.0096509531 0.51357806 0.0079519451 0.51373029
-0.25702098 0.044632383 0.80800003 -0.031577259 0.50787729 0.01414448 0.50905454
-0.25331432 0.044521909 0.80600005 -0.066575252 0.48978323 0.025588572 0.49494913
-0.25024381 0.044521909 0.80600005 -0.09165448 0.47719258 0.031719834 0.48694912
-0.24717335 0.044521909 0.80600005 -0.10766131 0.45834866 0.039475232 0.47247514
-0.24410288 0.044521909 0.80600005 -0.11865465 0.44208926 0.047633588 0.46020734
-0.24103239 0.044521909 0.80600005 -0.14609405 0.42345968 0.051174372 0.45086625
-0.23973335 0.044853337 0.81200004 -0.15167357 0.41021425 0.052950919 0.44055012
-0.23664002 0.044853337 0.81200004 -0.2095302 0.42441705 0.03766194 0.47481698
-0.28331432 0.047474287 0.80400002 -0.068131819 0.538131 -0.0012736022 0.54242837
-0.28094858 0.047592383 0.80600005 -0.065281995 0.52961469 -0.0030075014 0.53363144
-0.27856764 0.047710478 0.80800003 -0.057557181 0.52676892 -0.0046119392 0.52992415
-0.27617145 0.047828574 0.81000006 -0.053404801 0.53079808 -0.0027194917 0.53348482
-0.27308574 0.047828574 0.81000006 -0.051210068 0.53243333 -0.00082316995 0.53489107
-0.26933336 0.047710478 0.80800003 -0.032987952 0.52788556 0.0021666884 0.5289197
-0.26559621 0.047592383 0.80600005 -0.028204653 0.52028078 0.0069237649 0.52109075
-0.26317716 0.047710478 0.80800003 -0.016396534 0.52049863 0.0048385262 0.52077931
-0.25945526 0.047592383 0.80600005 -0.024352387 0.49723536 0.019219816 0.4982022
-0.25638479 0.047592383 0.80600005 -0.045473032 0.48735952 0.026396096 0.49018756
-0.25331432 0.047592383 0.80600005 -0.078052983 0.47164488 0.035301328 0.47936139
-0.25024381 0.047592383 0.80600005 -0.099047288 0.44971731 0.044284552 0.46261987
-0.24717335 0.047592383 0.80600005 -0.11597492 0.43570241 0.048628002 0.45348808
-0.24349716 0.047474287 0.80400002 -0.14416334 0.40721843 0.056826711 0.43570539
-0.2404343 0.047474287 0.80400002 -0.16414386 0.39359701 0.057533205 0.43031603
-0.23796192 0.047592383 0.80600005 -0.17226309 0.38221827 0.05895853 0.42336923
-0.2354743 0.047710478 0.80800003 -0.21144941 0.38957536 0.048103631 0.44586298
-0.2323962 0.047710478 0.80800003 -0.25148273 0.38210917 0.036969543 0.45893106
-0.28331432 0.050537147 0.80400002 -0.076457761 0.53330475 -0.0031575263 0.53876686
-0.28094858 0.05066286 0.80600005 -0.066689938 0.52628946 -0.0039214492 0.53051251
-0.27787811 0.05066286 0.80600005 -0.053839829 0.52868402 -0.0021257102 0.53142267
-0.27480763 0.05066286 0.80600005 -0.047261383 0.53274119 -0.0012760758 0.53483498
-0.27173716 0.05066286 0.80600005 -0.042594314 0.53528798 -0.0016941428 0.53698266
-0.26866668 0.05066286 0.80600005 -0.033422038 0.52758682 0.0023996234 0.52864981
-0.26493716 0.050537147 0.80400002 -0.035351012 0.51025152 0.013184875 0.51164454
-0.26252574 0.05066286 0.80600005 -0.02824806 0.5061326 0.014780819 0.50713575
-0.25881144 0.050537147 0.80400002 -0.047217626 0.47600484 0.032084227 0.4794158
-0.25638479 0.05066286 0.80600005 -0.05999041 0.46227401 0.039008826 0.46777967
-0.25268573 0.050537147 0.80400002 -0.094255701 0.44222039 0.047450185 0.45463669
-0.24962287 0.050537147 0.80400002 -0.11508793 0.41850334 0.054731935 0.43747669
-0.24656002 0.050537147 0.80400002 -0.13232593 0.40051973 0.058626592 0.42586768
-0.24349716 0.050537147 0.80400002 -0.16185297 0.37506813 0.062617153 0.41327158
-0.24103239 0.05066286 0.80600005 -0.17438863 0.3695893 0.061502308 0.41326767
-0.23855239 0.050788574 0.80800003 -0.17839488 0.35479513 0.063710809 0.4021982
-0.23605716 0.050914288 0.81000006 -0.20520648 0.34784514 0.059496373 0.40822268
-0.2323962 0.050788574 0.80800003 -0.25142998 0.3522076 0.044763982 0.4350529
-0.28708956 0.053733338 0.80600005 -0.10747045 0.55452716 -0.0020620823 0.56484908
-0.28331432 0.053600002 0.80400002 -0.080875129 0.53371423 -0.0033244193 0.53981733
-0.28025144 0.053600002 0.80400002 -0.066643231 0.53133833 -0.0032959282 0.53551155
-0.2771886 0.053600002 0.80400002 -0.050231487 0.53382987 -0.0024811924 0.53619373
-0.27412573 0.053600002 0.80400002 -0.045680381 0.5352838 -0.0014466345 0.53723133
-0.27106288 0.053600002 0.80400002 -0.042800866 0.53588188 -0.0020668209 0.53759241
-0.26800001 0.053600002 0.80400002 -0.041137282 0.52889979 0.0023010373 0.5305022
-0.26493716 0.053600002 0.80400002 -0.041455641 0.51183367 0.012820721 0.51366979
-0.26187429 0.053600002 0.80400002 -0.042786442 0.48552021 0.027121812 0.48815587
-0.25816762 0.05346667 0.80200005 -0.062998161 0.45643556 0.041622013 0.46263874
-0.25511241 0.05346667 0.80200005 -0.08176738 0.42389065 0.054402709 0.43511933
-0.25205716 0.05346667 0.80200005 -0.10806658 0.39697951 0.061804444 0.41604194
-0.24838097 0.053333338 0.80000001 -0.13733281 0.38364777 0.06211707 0.41219467
-0.24533334 0.053333338 0.80000001 -0.16256322 0.37341022 0.060785055 0.41177279
-0.24228573 0.053333338 0.80000001 -0.17976512 0.36439228 0.061507523 0.4109506
-0.2398362 0.05346667 0.80200005 -0.19493082 0.35589081 0.059746057 0.41015348
-0.23678097 0.05346667 0.80200005 -0.22023667 0.34402648 0.055211008 0.41219735
-0.2354743 0.05386667 0.80800003 -0.21495315 0.3334457 0.060219526 0.40126958
-0.28566477 0.056521907 0.80200005 -0.11809403 0.54557741 -0.00085890293 0.55821294
-0.28260955 0.056521907 0.80200005 -0.083635315 0.53648102 -0.002851218 0.54296857
-0.27955431 0.056521907 0.80200005 -0.068175711 0.53778231 -0.0026939809 0.54209322
-0.27649906 0.056521907 0.80200005 -0.052182112 0.53844637 -0.0017320216 0.54097182
-0.27344382 0.056521907 0.80200005 -0.048986144 0.53912199 -0.00091406703 0.54134369
-0.2703886 0.056521907 0.80200005 -0.047732145 0.53350109 0.0026566982 0.53563869
-0.26733336 0.056521907 0.80200005 -0.050543364 0.52676022 0.0070959032 0.52922714
-0.26361907 0.056380957 0.80000001 -0.054302476 0.50049829 0.023825884 0.50399899
-0.26057145 0.056380957 0.80000001 -0.062591404 0.47596598 0.03644383 0.48144516
-0.25752383 0.056380957 0.80000001 -0.090268478 0.41668797 0.059666008 0.4305082
-0.25447622 0.056380957 0.80000001 -0.10207879 0.39009067 0.066888481 0.40873572
-0.25142857 0.056380957 0.80000001 -0.1232432 0.37008199 0.070122242 0.39631641
-0.24900192 0.056521907 0.80200005 -0.13799477 0.38174862 0.066479892 0.41133213
-0.24594668 0.056521907 0.80200005 -0.16275579 0.37068343 0.065311253 0.41007465
-0.24289145 0.056521907 0.80200005 -0.18017697 0.36558506 0.06213811 0.41228306
-0.2404343 0.056662861 0.80400002 -0.19636464 0.35498244 0.060518116 0.41016343
-0.23678097 0.056521907 0.80200005 -0.22880843 0.33889049 0.054815114 0.41255879
-0.28260955 0.059577148 0.80200005 -0.08839415 0.52901053 0.0020465851 0.53634864
-0.27955431 0.059577148 0.80200005 -0.070875928 0.53077018 0.0032758415 0.53549147
-0.27580956 0.059428576 0.80000001 -0.053364679 0.53228033 0.0033743083 0.53495938
-0.27276191 0.059428576 0.80000001 -0.05027163 0.52841026 0.0056288242 0.53082609
-0.2697143 0.059428576 0.80000001 -0.047552578 0.52402323 0.0081570148 0.52623963
-0.26666668 0.059428576 0.80000001 -0.052628234 0.51450717 0.014156789 0.51738554
-0.26361907 0.059428576 0.80000001 -0.059913475 0.49336159 0.027832508 0.49776495
-0.25992003 0.059280004 0.79800004 -0.081861846 0.45616752 0.045391083 0.46567211
-0.25688002 0.059280004 0.79800004 -0.10155773 0.4089793 0.061633199 0.42588341
-0.25384003 0.059280004 0.79800004 -0.11410738 0.37355018 0.070123374 0.39683437
-0.25142857 0.059428576 0.80000001 -0.12671679 0.36122513 0.071614444 0.38944751
-0.24838097 0.059428576 0.80000001 -0.15008843 0.35536513 0.06984365 0.39203194
-0.24594668 0.059577148 0.80200005 -0.16708907 0.36289579 0.066164255 0.40495655
-0.24349716 0.059725717 0.80400002 -0.19151162 0.35660315 0.061387956 0.4094032
-0.2404343 0.059725717 0.80400002 -0.21351996 0.34459144 0.057794005 0.40948039
-0.23737144 0.059725717 0.80400002 -0.24247804 0.32741037 0.051990896 0.41072643
-0.27580956 0.062476195 0.80000001 -0.049461819 0.51946545 0.011038721 0.52193171
-0.27208 0.062320005 0.79800004 -0.045839109 0.52111065 0.0097975433 0.52321458
-0.2697143 0.062476195 0.80000001 -0.046628624 0.52393943 0.0081394911 0.52607322
-0.26666668 0.062476195 0.80000001 -0.053316973 0.51027507 0.016624838 0.51332223
-0.27317527 0.064740956 0.82900006 -0.13278581 0.56904685 -0.025585383 0.584894
-0.27001715 0.064740956 0.82900006 -0.13278581 0.56904685 -0.025585383 0.584894
-0.26685905 0.064740956 0.82900006 -0.13278581 0.56904685 -0.025585383 0.584894
-0.26370096 0.064740956 0.82900006 -0.13321982 0.56681931 -0.022735089 0.58270794
-0.25080001 0.062320005 0.79800004 -0.13789693 0.33544129 0.074755937 0.37030375
-0.24962287 0.062788576 0.80400002 -0.14960115 0.34596312 0.07156533 0.38365686
-0.24594668 0.062632382 0.80200005 -0.17920095 0.3421123 0.066934496 0.39196178
-0.24349716 0.062788576 0.80400002 -0.20284466 0.34348091 0.060896039 0.40352625
-0.2404343 0.062788576 0.80400002 -0.23315738 0.32179403 0.05504635 0.40117809
-0.23737144 0.062788576 0.80400002 -0.2512688 0.32207698 0.050356388 0.41158882
-0.27251622 0.06773524 0.82700002 -0.13278581 0.56904685 -0.025585383 0.584894
-0.27001715 0.067899056 0.82900006 -0.13278581 0.56904685 -0.025585383 0.584894
-0.26685905 0.067899056 0.82900006 -0.13278581 0.56904685 -0.025585383 0.584894
-0.26433715 0.068062864 0.83100003 -0.13321982 0.56681931 -0.022735089 0.58270794
-0.25991431 0.06773524 0.82700002 -0.13321982 0.56681931 -0.022735089 0.58270794
-0.25738478 0.067899056 0.82900006 -0.094253063 0.45710152 0.04400593 0.46878776
-0.24656002 0.065851435 0.80400002 -0.17970288 0.31581572 0.07028845 0.37009886
-0.24410288 0.066015244 0.80600005 -0.24755588 0.18985254 0.047486901 0.31556761
-0.2404343 0.065851435 0.80400002 -0.26451486 0.22976035 0.045714676 0.35333803
-0.23737144 0.065851435 0.80400002 -0.28415167 0.21951544 0.035032004 0.36077201
-0.23430859 0.065851435 0.80400002 -0.31195158 0.20677193 0.021291524 0.37486228
-0.27500001 0.070714287 0.82500005 -0.13903429 0.57135427 -0.022903413 0.58847326
-0.27251622 0.070885718 0.82700002 -0.13612391 0.57048446 -0.02403751 0.58699238
-0.27001715 0.071057148 0.82900006 -0.13278581 0.56904685 -0.025585383 0.584894
-0.26685905 0.071057148 0.82900006 -0.13278581 0.56904685 -0.025585383 0.584894
-0.26054287 0.071057148 0.82900006 -0.13321982 0.56681931 -0.022735089 0.58270794
-0.24470858 0.069257148 0.80800003 -0.23397981 0.05521436 0.0093992651 0.24058995
-0.24103239 0.069085717 0.80600005 0.15329683 0.45719391 -0.82005036 0.95131952
-0.23796192 0.069085717 0.80600005 0.20299941 0.45989108 -0.79167676 0.93779564
-0.27544573 0.073140956 0.81700003 -0.15289515 0.56246364 -0.020599097 0.58323807
-0.27500001 0.073857151 0.82500005 -0.14502583 0.57696849 -0.01798144 0.59518772
-0.27251622 0.074036196 0.82700002 -0.13903429 0.57135427 -0.022903413 0.58847326
-0.25928572 0.073857151 0.82500005 -0.13321982 0.56681931 -0.022735089 0.58270794
-0.25614288 0.073857151 0.82500005 -0.05888737 0.49475819 0.026286423 0.49894327
-0.23926288 0.076626673 0.82100004 -0.2175612 0.69677162 -0.6486252 0.97649282
-0.23556001 0.076440006 0.81900007 -0.088794813 0.69826335 -0.69296139 0.98775083
-0.23926288 0.079754293 0.82100004 -0.20372014 0.71495748 -0.63324457 0.97655761
-0.23613526 0.079754293 0.82100004 -0.11643241 0.72181916 -0.65923274 0.98446292
