# .PCD v0.7 - Point Cloud Data file format
VERSION 0.7
FIELDS x y z normal_x normal_y normal_z curvature
SIZE 4 4 4 4 4 4 4
TYPE F F F F F F F
COUNT 1 1 1 1 1 1 1
WIDTH 373
HEIGHT 1
VIEWPOINT 0 0 0 1 0 0 0
POINTS 373
DATA ascii
-0.18846287 0.051133338 0.76700002 0.023254745 0.17332084 0.00038731098 0.17487438
-0.18554096 0.051133338 0.76700002 -0.12670997 0.27002528 -0.02334851 0.29918927
-0.18261907 0.051133338 0.76700002 -0.078967199 0.30772406 -0.025717169 0.31873387
-0.17384002 0.04946667 0.74200004 0.43998718 0.065944321 -0.62648851 0.76839137
-0.17101334 0.04946667 0.74200004 0.44898719 0.084051281 -0.62481922 0.77398521
-0.16818668 0.04946667 0.74200004 0.45086581 0.099784121 -0.62658882 0.77836394
-0.16536 0.04946667 0.74200004 0.46298605 0.1004641 -0.62706912 0.78591657
-0.16932382 0.051533338 0.77300006 -0.001944581 0.45517892 -0.04498595 0.45740068
-0.16637906 0.051533338 0.77300006 0.0033830367 0.48693144 -0.066505432 0.49146378
-0.1634343 0.051533338 0.77300006 0.067808077 0.49159595 -0.066079378 0.50063062
-0.19138478 0.05405524 0.76700002 0.009145312 0.20279333 -0.0018390119 0.20300776
-0.18846287 0.05405524 0.76700002 0.069992721 0.23830262 -0.0077296197 0.24848917
-0.18554096 0.05405524 0.76700002 -0.078646347 0.31637138 -0.021557868 0.32671219
-0.18285716 0.054125719 0.76800001 -0.062198129 0.33612168 -0.016843975 0.34224275
-0.17337143 0.052152384 0.74000001 0.44083148 0.083191462 -0.6243279 0.7687903
-0.17055239 0.052152384 0.74000001 0.45341933 0.0951555 -0.62331921 0.77664053
-0.16818668 0.052293338 0.74200004 0.46772987 0.11616054 -0.61560684 0.78181601
-0.16558287 0.052363813 0.74300003 0.4859044 0.13068303 -0.61251229 0.79268682
-0.16976191 0.054619052 0.77500004 -0.0059868945 0.46961486 -0.026603729 0.47040591
-0.16616382 0.054407623 0.77200001 -0.0012409613 0.53615928 -0.073772788 0.54121226
-0.16322286 0.054407623 0.77200001 0.024278158 0.55051863 -0.086743593 0.55783927
-0.15986668 0.054266669 0.77000004 0.02033907 0.531524 -0.07899344 0.53774661
-0.15693334 0.054266669 0.77000004 0.025500314 0.52445138 -0.077212751 0.53071773
-0.19138478 0.056977145 0.76700002 0.053899877 0.25404626 -0.0085546374 0.25984201
-0.18797144 0.056828573 0.76500005 0.11497098 0.28988063 -0.022347182 0.31264758
-0.18554096 0.056977145 0.76700002 -0.017374108 0.39514667 -0.030493855 0.39670217
-0.18285716 0.057051431 0.76800001 -0.033105727 0.41917348 -0.027798742 0.4213967
-0.17266858 0.054748576 0.73700005 0.44083148 0.083191462 -0.6243279 0.7687903
-0.17032191 0.054897148 0.73900002 0.45990199 0.11529363 -0.61977214 0.78033322
-0.16773334 0.05497143 0.74000001 0.47516283 0.12928839 -0.61278808 0.78613257
-0.16536 0.055120002 0.74200004 0.4982895 0.16151793 -0.59837353 0.79525548
-0.16976191 0.057571433 0.77500004 -0.012466506 0.5121488 -0.034946203 0.51349103
-0.16616382 0.057348575 0.77200001 -0.0024144882 0.54563016 -0.062937826 0.5492534
-0.16280001 0.057200003 0.77000004 0.0023977384 0.54999655 -0.073143244 0.55484402
-0.15945144 0.057051431 0.76800001 -0.047533907 0.55519021 -0.082239181 0.5632574
-0.15652573 0.057051431 0.76800001 -0.00094809756 0.53195059 -0.057970613 0.53510088
-0.15400001 0.057200003 0.77000004 0.016286012 0.53435242 -0.059779793 0.53793252
-0.18797144 0.05974286 0.76500005 0.14101724 0.34048861 -0.021946728 0.36918831
-0.18578286 0.059977148 0.76800001 -0.01305081 0.41666174 -0.017536461 0.41723478
-0.18285716 0.059977148 0.76800001 0.017133895 0.46638128 -0.032360852 0.46781653
-0.1724343 0.0574781 0.73600006 0.45059916 0.11254826 -0.61983722 0.7745353
-0.16986096 0.057556193 0.73700005 0.46569708 0.11947084 -0.6190902 0.7838493
-0.16750668 0.057712384 0.73900002 0.4866696 0.15479088 -0.60029429 0.7881375
-0.16536 0.057946671 0.74200004 0.49141717 0.22188969 -0.59713662 0.80454832
-0.16209525 0.057790481 0.74000001 0.49821487 0.16165078 -0.59833992 0.79521048
-0.16530287 0.059977148 0.76800001 -0.020438623 0.55064994 -0.060204834 0.5543083
-0.16237715 0.059977148 0.76800001 -0.024116313 0.55859292 -0.06791535 0.563223
-0.15945144 0.059977148 0.76800001 -0.1048064 0.53686512 -0.063564092 0.55068046
-0.15652573 0.059977148 0.76800001 -0.10117684 0.54525876 -0.068796426 0.55881733
-0.1534 0.059899051 0.76700002 -0.0084885601 0.5142495 -0.041840911 0.51601869
-0.18969144 0.063230477 0.77200001 0.11793694 0.35458428 -0.00087368488 0.3736842
-0.18554096 0.062820956 0.76700002 0.029713929 0.45035964 -0.016667396 0.45164648
-0.18261907 0.062820956 0.76700002 0.04067225 0.48381114 -0.028504431 0.48635373
-0.17969716 0.062820956 0.76700002 0.031289212 0.50506258 -0.033664852 0.5071494
-0.16986096 0.060363814 0.73700005 0.4763329 0.12708758 -0.60785007 0.7826404
-0.16954668 0.061264765 0.74800003 0.17786923 0.50572908 -0.80996013 0.97130573
-0.16669716 0.061264765 0.74800003 0.22850737 0.47827691 -0.8120569 0.96974266
-0.16428572 0.061428577 0.75000006 0.32679179 0.42516899 -0.78542757 0.95102996
-0.16422668 0.062493339 0.76300001 -0.026462795 0.53097665 -0.045679837 0.53359449
-0.16216573 0.062820956 0.76700002 -0.084055305 0.52783775 -0.043999165 0.53629649
-0.15924382 0.062820956 0.76700002 -0.12192927 0.51422954 -0.046227813 0.53050518
-0.15632191 0.062820956 0.76700002 -0.1664568 0.5124172 -0.06112501 0.54223198
-0.1534 0.062820956 0.76700002 -0.128685 0.5056293 -0.042196691 0.52345145
-0.15008572 0.062657148 0.76500005 -0.15703492 0.48028338 -0.040288538 0.50690752
-0.18846287 0.065742858 0.76700002 0.16201094 0.3762736 -0.011783302 0.40983924
-0.18554096 0.065742858 0.76700002 0.096663296 0.43221742 -0.0039489567 0.44291228
-0.18261907 0.065742858 0.76700002 0.0547277 0.47346926 -0.013973176 0.47682649
-0.17922859 0.065571435 0.76500005 0.031425241 0.48843223 -0.015508235 0.48968774
-0.17585334 0.065400004 0.76300001 0.032365415 0.4914422 -0.017305076 0.49281076
-0.17068002 0.06454286 0.75300002 -0.031455647 -0.11615874 -0.077530891 0.14315498
-0.16781144 0.06454286 0.75300002 0.21925464 0.4887937 -0.81417155 0.97461128
-0.16560002 0.064800002 0.75600004 -0.2385747 0.29065406 -0.011741221 0.37621209
-0.1637962 0.065228574 0.76100004 -0.058264427 0.5024026 -0.022336006 0.50626278
-0.16132002 0.065400004 0.76300001 -0.11185677 0.49630755 -0.028987467 0.50958157
-0.15841335 0.065400004 0.76300001 -0.18322018 0.48205549 -0.045478344 0.51770204
-0.15550667 0.065400004 0.76300001 -0.22538123 0.45499122 -0.053590477 0.51057386
-0.15220001 0.065228574 0.76100004 -0.26023012 0.44570577 -0.070429146 0.52089697
-0.19088572 0.068485722 0.76500005 0.16848139 0.36496884 -0.013449371 0.40220532
-0.18748002 0.06830667 0.76300001 0.18196751 0.36309704 -0.0078519285 0.40621826
-0.18457335 0.06830667 0.76300001 0.16861257 0.36921793 0.0014275908 0.40589917
-0.18119049 0.068127625 0.76100004 0.13123094 0.38386321 0.012571245 0.40587014
-0.17829144 0.068127625 0.76100004 0.094210863 0.42894298 0.0065854192 0.43921649
-0.17516191 0.068038099 0.76000005 0.061309434 0.44961596 0.0029457211 0.45378631
-0.17181334 0.067859054 0.75800002 0.02919697 0.46803218 -0.0029785037 0.46895143
-0.16848001 0.067680001 0.75600004 -0.026702665 0.38539505 0.032419384 0.38767695
-0.16603811 0.067859054 0.75800002 -0.041567948 0.44913459 0.0090215802 0.45114428
-0.16358097 0.068038099 0.76000005 -0.092262372 0.44412649 0.0038560927 0.4536249
-0.16089715 0.068127625 0.76100004 -0.15158856 0.42526436 -0.0038877428 0.45149085
-0.1579981 0.068127625 0.76100004 -0.21622871 0.39951062 -0.020434141 0.45473194
-0.15509906 0.068127625 0.76100004 -0.28092358 0.3805846 -0.052325606 0.47592086
-0.15220001 0.068127625 0.76100004 -0.28400788 0.37126154 -0.051164776 0.470227
-0.19088572 0.071400002 0.76500005 0.17934373 0.37842429 -0.011870146 0.41893917
-0.18748002 0.071213335 0.76300001 0.1592814 0.38737649 -0.0012521148 0.41884685
-0.18408954 0.071026668 0.76100004 0.16093847 0.37552482 0.0073732734 0.40862504
-0.1809524 0.070933335 0.76000005 0.14058749 0.36967078 0.01607278 0.39582783
-0.17758858 0.070746668 0.75800002 0.1040732 0.3789539 0.023133844 0.39366543
-0.17470096 0.070746668 0.75800002 0.067694724 0.40020955 0.025350243 0.40668523
-0.17181334 0.070746668 0.75800002 0.028012961 0.39318228 0.032175869 0.39548996
-0.16892573 0.070746668 0.75800002 -0.012905033 0.39569145 0.032365352 0.39722258
-0.1664762 0.070933335 0.76000005 -0.070900202 0.3696 0.035518497 0.37801132
-0.16358097 0.070933335 0.76000005 -0.1309386 0.33843777 0.030551195 0.36416814
-0.16068572 0.070933335 0.76000005 -0.19340903 0.32335383 0.01214689 0.37697786
-0.15779048 0.070933335 0.76000005 -0.23254138 0.33462021 -0.0088260472 0.40758321
-0.15489525 0.070933335 0.76000005 -0.28737596 0.30441141 -0.036133617 0.42018673
-0.1516 0.070746668 0.75800002 -0.28960729 0.33223212 -0.04350096 0.44288024
-0.14812382 0.070466675 0.75500005 -0.28322694 0.37533861 -0.010378242 0.47032359
-0.18674287 0.073828578 0.76000005 0.17505297 0.37852931 -0.00069722533 0.41704732
-0.18336383 0.073634289 0.75800002 0.15622716 0.36896092 0.011090875 0.40082675
-0.1804762 0.073634289 0.75800002 0.1389652 0.35390788 0.020998418 0.38079265
-0.17712002 0.073440008 0.75600004 0.10812592 0.32087448 0.036523461 0.34056661
-0.17424001 0.073440008 0.75600004 0.06835714 0.33223107 0.043849289 0.34201309
-0.17136002 0.073440008 0.75600004 0.008276335 0.31552866 0.052050292 0.3199001
-0.16892573 0.073634289 0.75800002 -0.026580282 0.32355064 0.050512344 0.32854682
-0.16603811 0.073634289 0.75800002 -0.083938986 0.2977663 0.048189014 0.31310174
-0.16358097 0.073828578 0.76000005 -0.16766196 0.25190103 0.030213237 0.30410114
-0.16068572 0.073828578 0.76000005 -0.20367919 0.2494403 0.016106963 0.32243621
-0.15737525 0.073634289 0.75800002 -0.23501091 0.25212413 0.0010299087 0.3446705
-0.15489525 0.073828578 0.76000005 -0.29119891 0.25655836 -0.03346011 0.38953635
-0.1516 0.073634289 0.75800002 -0.30673128 0.25047433 -0.044608623 0.3985115
-0.1487124 0.073634289 0.75800002 -0.38984227 0.31074828 -0.035119653 0.49977484
-0.18674287 0.076723814 0.76000005 0.15530586 0.38993761 0.0045678616 0.41975245
-0.18288001 0.076320007 0.75600004 0.14004204 0.33916593 0.024220198 0.36773893
-0.18000001 0.076320007 0.75600004 0.12304981 0.31118146 0.036336184 0.33659393
-0.17688572 0.076219052 0.75500005 0.099992312 0.29002935 0.044636041 0.31001267
-0.17400953 0.076219052 0.75500005 0.05193935 0.25013497 0.05528003 0.26138303
-0.17113334 0.076219052 0.75500005 0.009180095 0.23875043 0.058433533 0.24596854
-0.16848001 0.076320007 0.75600004 -0.053299673 0.17597136 0.052781492 0.19129208
-0.16560002 0.076320007 0.75600004 -0.091321833 0.16860989 0.046529323 0.19731687
-0.16272001 0.076320007 0.75600004 -0.15312077 0.16838518 0.031206191 0.22972454
-0.16026287 0.076521911 0.75800002 -0.20233469 0.18966559 0.01478526 0.27772462
-0.15696001 0.076320007 0.75600004 -0.22787465 0.16593182 -0.0002245903 0.28188699
-0.15489525 0.076723814 0.76000005 -0.27804738 0.17470275 -0.02827394 0.3295919
-0.15220001 0.076824769 0.76100004 -0.36985701 0.19363476 -0.050637126 0.42053863
-0.15047811 0.077430479 0.76700002 0.32876891 0.30274412 -0.75208849 0.87486005
-0.18336383 0.079409532 0.75800002 0.15066862 0.27884695 0.032208979 0.31858134
-0.17976192 0.079095244 0.75500005 0.12276548 0.23158912 0.042395651 0.26552266
-0.17688572 0.079095244 0.75500005 0.075551569 0.21564677 0.051927805 0.23432471
-0.17400953 0.079095244 0.75500005 0.03642524 0.17739308 0.053679913 0.1888826
-0.17113334 0.079095244 0.75500005 -0.0089859562 0.13467053 0.048440754 0.14339946
-0.16825715 0.079095244 0.75500005 -0.053613897 0.12975514 0.045006305 0.14743274
-0.16538097 0.079095244 0.75500005 -0.095479742 0.1105605 0.034255534 0.15004481
-0.16250478 0.079095244 0.75500005 -0.1499965 0.10867204 0.019854486 0.18628678
-0.15984002 0.079200007 0.75600004 -0.18229479 0.13616303 0.01513505 0.2280369
-0.15737525 0.079409532 0.75800002 -0.23180319 0.13768855 -0.0076260269 0.26972026
-0.15489525 0.07961905 0.76000005 -0.26823545 0.1266842 -0.031655133 0.29833066
-0.1534 0.080352388 0.76700002 0.30741706 0.38483769 -0.80364329 0.9425751
-0.15047811 0.080352388 0.76700002 0.23289466 0.39507058 -0.76088536 0.88840711
-0.14774857 0.080457151 0.76800001 0.24407151 0.39334387 -0.71417952 0.85108328
-0.18384764 0.082514293 0.76000005 0.18990314 0.15970573 0.013315082 0.24848825
-0.17976192 0.081971437 0.75500005 0.10445628 0.15647191 0.040468991 0.19243781
-0.17688572 0.081971437 0.75500005 0.063839577 0.14933959 0.046599925 0.16896555
-0.17400953 0.081971437 0.75500005 0.029366601 0.13138625 0.046672076 0.14248869
-0.17113334 0.081971437 0.75500005 -0.025367824 0.1069141 0.041474104 0.11744894
-0.16825715 0.081971437 0.75500005 -0.063809574 0.10518366 0.037852287 0.12871698
-0.16538097 0.081971437 0.75500005 -0.099084392 0.093715355 0.028800994 0.13939075
-0.16250478 0.081971437 0.75500005 -0.14420441 0.078343272 0.01226759 0.16456936
-0.15962858 0.081971437 0.75500005 -0.17973375 0.09078674 0.0039183795 0.20139962
-0.15696001 0.082080007 0.75600004 -0.22027861 0.075735241 -0.020186335 0.23380756
-0.15550667 0.082840003 0.76300001 0.24268737 0.44265842 -0.82417482 0.96649253
-0.15440001 0.083817147 0.77200001 0.25913021 0.5027234 -0.77246666 0.95738393
-0.15145905 0.083817147 0.77200001 0.17748365 0.51115048 -0.75252247 0.92685777
-0.14871049 0.083925717 0.77300006 0.18511486 0.51616585 -0.73320222 0.9155764
-0.14614287 0.084142864 0.77500004 0.18043572 0.48111141 -0.75257826 0.91126251
-0.18384764 0.08540953 0.76000005 0.19153783 0.081200734 -0.005851686 0.20812146
-0.18119049 0.085521914 0.76100004 0.14735027 0.043839723 -0.0033606589 0.15377033
-0.17712002 0.084960006 0.75600004 0.05562111 0.072219193 0.027697474 0.095270507
-0.17424001 0.084960006 0.75600004 0.013687985 0.075302795 0.032186836 0.0830293
-0.17181334 0.085184768 0.75800002 -0.013795525 0.04071258 0.018856525 0.046940379
-0.16848001 0.084960006 0.75600004 -0.077083416 0.049179763 0.017067015 0.093014978
-0.16560002 0.084960006 0.75600004 -0.11093358 0.041425824 0.0070803761 0.11862753
-0.16272001 0.084960006 0.75600004 -0.15797932 0.032496542 -0.011022091 0.16166316
-0.16026287 0.085184768 0.75800002 0.1864311 0.4636302 -0.84433472 0.9811272
-0.15841335 0.085746676 0.76300001 0.22263587 0.48492584 -0.81178963 0.97145367
-0.15632191 0.086196199 0.76700002 0.23741786 0.49857891 -0.79275072 0.96612722
-0.15440001 0.086758099 0.77200001 0.25591481 0.51712286 -0.76452899 0.95781684
-0.15165524 0.086870484 0.77300006 0.18090072 0.51790476 -0.75080311 0.92986864
-0.14871049 0.086870484 0.77300006 0.16156089 0.51122695 -0.73620117 0.9107399
-0.14614287 0.087095246 0.77500004 0.17902261 0.47587836 -0.75902271 0.91357803
-0.17249334 0.088420957 0.76100004 -0.023333393 -0.019533589 -0.011517882 0.032537211
-0.1695943 0.088420957 0.76100004 -0.090057589 -0.018504903 -0.019959301 0.094080679
-0.16713335 0.088653341 0.76300001 0.13700145 0.50684249 -0.83740044 0.98838162
-0.16422668 0.088653341 0.76300001 0.18233921 0.50635153 -0.81878781 0.97982293
-0.16132002 0.088653341 0.76300001 0.20949252 0.50883484 -0.80241728 0.9729715
-0.15924382 0.089118101 0.76700002 0.22879204 0.52318871 -0.77860737 0.96555769
-0.15652573 0.089234293 0.76800001 0.22898412 0.53969687 -0.76341081 0.96254998
-0.15460001 0.089815244 0.77300006 0.2480991 0.51133263 -0.76401484 0.95222521
-0.15204763 0.090047628 0.77500004 0.20710194 0.4929198 -0.76959091 0.93708664
-0.14948002 0.090280004 0.77700001 0.21772969 0.46967217 -0.7773478 0.93395275
-0.14652 0.090280004 0.77700001 0.17120808 0.46931458 -0.77604139 0.92293477
-0.17385334 0.092040002 0.76700002 0.02168089 0.59467083 -0.7852155 0.98522425
-0.17093144 0.092040002 0.76700002 0.07839337 0.59195876 -0.7815361 0.98354429
-0.16800953 0.092040002 0.76700002 0.12691472 0.58499849 -0.77412373 0.97856939
-0.16508763 0.092040002 0.76700002 0.18046385 0.5654496 -0.76865196 0.97114688
-0.16216573 0.092040002 0.76700002 0.20904891 0.55253333 -0.76450527 0.96615881
-0.15945144 0.092160009 0.76800001 0.2474636 0.54013729 -0.7564888 0.9619053
-0.15652573 0.092160009 0.76800001 0.16137569 0.55529016 -0.74502385 0.94310647
-0.15540001 0.093240008 0.77700001 0.33741009 0.46307105 -0.77675498 0.96520913
-0.15204763 0.09300001 0.77500004 0.19251207 0.48681039 -0.77628291 0.93630147
-0.14986478 0.093480006 0.77900004 0.21005636 0.47929609 -0.77647847 0.93635845
-0.14689715 0.093480006 0.77900004 0.15991291 0.47793084 -0.7783497 0.92726386
-0.17093144 0.094961911 0.76700002 0.09697365 0.5806101 -0.77648783 0.97439486
-0.16822858 0.095085718 0.76800001 0.18044069 0.56210321 -0.76584995 0.9669773
-0.16530287 0.095085718 0.76800001 0.19976489 0.55634725 -0.76213294 0.96450758
-0.16280001 0.095333338 0.77000004 0.26841798 0.50659549 -0.77190328 0.96152061
-0.16048953 0.095704772 0.77300006 0.30260625 0.47534627 -0.78039277 0.96256816
-0.15836 0.096200004 0.77700001 0.32483265 0.47066307 -0.77740991 0.96509391
-0.15580001 0.096447624 0.77900004 0.34673622 0.47828546 -0.76439625 0.9660666
-0.15283239 0.096447624 0.77900004 0.29418203 0.48457581 -0.7736969 0.95914739
-0.15005715 0.096571438 0.78000003 0.20310701 0.47863805 -0.77857733 0.93623149
-0.16866668 0.098266676 0.77000004 0.24870193 0.4994908 -0.77483314 0.95483512
-0.16573334 0.098266676 0.77000004 0.27559274 0.49382085 -0.77316564 0.95791203
-0.16385715 0.098904766 0.77500004 0.30513895 0.47720543 -0.77993846 0.96391851
-0.16173525 0.099415243 0.77900004 0.32353753 0.48187268 -0.77315265 0.96676928
-0.15897144 0.099542864 0.78000003 0.34415349 0.47240439 -0.77114689 0.9676131
-0.15640001 0.099798098 0.78200006 0.36572307 0.48310938 -0.75724185 0.9698264
-0.15342097 0.099798098 0.78200006 0.35104549 0.492284 -0.75884628 0.97027016
-0.15044191 0.099798098 0.78200006 0.20502812 0.49164885 -0.78626561 0.94972032
-0.17085716 0.10251429 0.78000003 0.25004578 0.5294987 -0.76687193 0.96487528
-0.16788572 0.10251429 0.78000003 0.2600472 0.52632421 -0.76572353 0.9648701
-0.1649143 0.10251429 0.78000003 0.29506102 0.51510125 -0.76340747 0.96704769
-0.16235811 0.10277715 0.78200006 0.30322433 0.53025079 -0.74932361 0.96674544
-0.15978667 0.10304001 0.78400004 0.33644831 0.55011499 -0.72784686 0.97241193
-0.15680002 0.10304001 0.78400004 0.36624396 0.54958826 -0.71679449 0.97466725
-0.15381335 0.10304001 0.78400004 0.34244317 0.53817511 -0.74317956 0.97939551
-0.078780957 0.098834291 0.75200003 0.13803601 0.37055784 -0.8750577 0.96025676
-0.075512387 0.098308578 0.74800003 0.099864639 0.38157874 -0.876638 0.96128529
-0.072857149 0.098571435 0.75000006 0.092349663 0.39938998 -0.86293823 0.95535505
-0.070000008 0.098571435 0.75000006 0.096292473 0.38938183 -0.8691715 0.9572615
-0.1683162 0.1057562 0.78200006 0.2502079 0.58558387 -0.73532045 0.97273254
-0.16533716 0.1057562 0.78200006 0.27230763 0.57804418 -0.73458803 0.97360468
-0.16277334 0.10602667 0.78400004 0.29351088 0.59025371 -0.72198415 0.97765493
-0.16019429 0.10629715 0.78600001 0.34053189 0.59296703 -0.70791137 0.98423088
-0.15760002 0.10656763 0.78800005 -0.056193769 0.078605652 0.039020211 0.10420732
-0.11029334 0.10169905 0.75200003 -0.0019931868 -0.37984368 -0.1239045 0.39954665
-0.10742858 0.10169905 0.75200003 0.18939331 -0.35765436 -0.17922968 0.44261694
-0.10428572 0.10142858 0.75000006 0.16380925 -0.18861675 -0.091682494 0.2661117
-0.08462286 0.10183429 0.75300002 -0.12442961 -0.12078725 -0.05473882 0.1818478
-0.08164572 0.10169905 0.75200003 0.19139604 0.31355059 -0.89496779 0.96742636
-0.078780957 0.10169905 0.75200003 0.18145563 0.31173277 -0.9002223 0.9697957
-0.07571429 0.10142858 0.75000006 0.16526429 0.33307827 -0.89328253 0.96757793
-0.07305143 0.10169905 0.75200003 -0.10207674 -0.19798906 -0.089714736 0.24014175
-0.070466675 0.10210477 0.75500005 -0.075061001 -0.20866287 -0.089666218 0.23919527
-0.067680001 0.10224 0.75600004 -0.053624481 -0.21273553 -0.088114083 0.23642352
-0.064971432 0.10251048 0.75800002 -0.010841055 -0.22005367 -0.086365074 0.23664334
-0.16874668 0.10901334 0.78400004 0.22781998 0.64549875 -0.70542151 0.98294967
-0.11044001 0.10470287 0.75300002 0.21115734 -0.32731727 -0.17891905 0.42864442
-0.10757144 0.10470287 0.75300002 0.25824058 -0.27862132 -0.1835157 0.42189577
-0.10456382 0.10456382 0.75200003 0.28755394 -0.15455446 -0.13748261 0.35422567
-0.086794294 0.10386858 0.74700004 -0.048448801 0.0070246533 -0.0032380223 0.049062375
-0.08406096 0.10400762 0.74800003 -0.16687247 -0.10155323 -0.062751472 0.2051761
-0.08164572 0.10456382 0.75200003 -0.18779038 -0.10694148 -0.074531406 0.2285971
-0.078885719 0.10470287 0.75300002 -0.18190546 -0.11183868 -0.073764026 0.22591728
-0.075916193 0.10456382 0.75200003 -0.1712022 -0.11417003 -0.069999039 0.21735881
-0.073148578 0.10470287 0.75300002 -0.15945125 -0.12325804 -0.068944633 0.21300377
-0.070280008 0.10470287 0.75300002 -0.12007774 -0.15245335 -0.068537474 0.20581077
-0.06741143 0.10470287 0.75300002 -0.085922956 -0.16752724 -0.066935927 0.19982129
-0.064457148 0.10456382 0.75200003 -0.045701507 -0.20969626 -0.079512298 0.2288741
-0.11088001 0.10800001 0.75600004 0.23262769 -0.25146958 -0.14667177 0.37264621
-0.10785715 0.10785715 0.75500005 0.25703907 -0.21189424 -0.14420658 0.36299282
-0.10470287 0.10757144 0.75300002 0.29468375 -0.096026182 -0.11216718 0.32960737
-0.10183429 0.10757144 0.75300002 0.22082907 -0.02438166 -0.047373831 0.22716562
-0.08406096 0.10685715 0.74800003 -0.15489066 -0.008195065 -0.03217718 0.15840974
-0.08175429 0.10757144 0.75300002 -0.1875113 -0.059501633 -0.057582587 0.20497972
-0.079200007 0.10800001 0.75600004 -0.19837369 -0.066203021 -0.064895689 0.21896669
-0.076219052 0.10785715 0.75500005 -0.20779409 -0.059347697 -0.067658782 0.226447
-0.073440008 0.10800001 0.75600004 -0.1972234 -0.072447479 -0.066413999 0.22035544
-0.070560008 0.10800001 0.75600004 -0.16694975 -0.083951369 -0.056333989 0.19517574
-0.06741143 0.10757144 0.75300002 -0.12922812 -0.10899778 -0.051566452 0.17674705
-0.064457148 0.10742858 0.75200003 -0.088161647 -0.14631313 -0.05640927 0.17989445
-0.11146668 0.11146668 0.76000005 0.26064059 -0.20070133 -0.16540629 0.36820343
-0.10857143 0.11146668 0.76000005 0.25675818 -0.19458088 -0.14640984 0.35386768
-0.1056762 0.11146668 0.76000005 0.27645501 -0.13716827 -0.13239422 0.33581355
-0.10278096 0.11146668 0.76000005 0.25290954 -0.051125951 -0.069952726 0.26733965
-0.079933338 0.11190668 0.76300001 -0.19952461 -0.023559667 -0.054374516 0.20813869
-0.076824769 0.11161334 0.76100004 -0.19670618 -0.036724016 -0.055939585 0.20777683
-0.073925719 0.11161334 0.76100004 -0.19277936 -0.034228191 -0.053471535 0.20296468
-0.071026668 0.11161334 0.76100004 -0.17941232 -0.0429556 -0.049427241 0.19098957
-0.068127625 0.11161334 0.76100004 -0.16597675 -0.041312136 -0.043302387 0.17643715
-0.109 0.11481334 0.76300001 0.2672627 -0.19265401 -0.15628406 0.36465001
-0.10609334 0.11481334 0.76300001 0.28756317 -0.11644007 -0.13314083 0.33760533
-0.1029162 0.11451239 0.76100004 0.27005765 -0.025544338 -0.073346466 0.28100419
-0.10028001 0.11481334 0.76300001 0.21167397 -0.0060225725 -0.039937735 0.21549284
-0.085184768 0.11406096 0.75800002 -0.087275043 0.071830049 -0.0062140524 0.11320381
-0.082297146 0.11406096 0.75800002 -0.16612741 -0.0083966851 -0.036580831 0.17031436
-0.079933338 0.11481334 0.76300001 -0.20195021 0.0086524487 -0.050050765 0.20823984
-0.076824769 0.11451239 0.76100004 -0.20255379 0.0011314526 -0.051426679 0.2089833
-0.074120007 0.11481334 0.76300001 -0.18389022 0.0038044527 -0.042215526 0.18871206
-0.071213335 0.11481334 0.76300001 -0.17153962 -0.0036117285 -0.038015634 0.17573865
-0.06830667 0.11481334 0.76300001 -0.15726593 0.0022991374 -0.031458795 0.16039799
-0.10928572 0.11802858 0.76500005 0.30067661 -0.13859124 -0.17519397 0.37457561
-0.10609334 0.11772001 0.76300001 0.33821344 -0.042305425 -0.12715057 0.36379302
-0.1029162 0.11741143 0.76100004 0.27716601 -0.019372307 -0.076378733 0.28814927
-0.10001715 0.11741143 0.76100004 0.23043111 0.035561476 -0.043384314 0.23716094
-0.096097149 0.11617715 0.75300002 0.14981416 0.10354058 -0.013835967 0.18263726
-0.093104765 0.11602286 0.75200003 0.08139497 0.17667659 -0.010875463 0.19482821
-0.090240009 0.11602286 0.75200003 0.049013525 0.19979557 -0.013456434 0.20615932
-0.087491438 0.11617715 0.75300002 -0.049606748 0.12438837 -0.0026789606 0.13394205
-0.084847622 0.11648572 0.75500005 -0.089846611 0.069415785 -0.0067276955 0.11373754
-0.082080007 0.11664001 0.75600004 -0.16819565 0.025658414 -0.032996595 0.17331159
-0.079723813 0.11741143 0.76100004 -0.21295123 0.043356407 -0.05232814 0.22353129
-0.076723814 0.11725715 0.76000005 -0.20646144 0.028185152 -0.050121456 0.2143196
-0.073925719 0.11741143 0.76100004 -0.20898139 0.023866318 -0.051806509 0.21662581
-0.071213335 0.11772001 0.76300001 -0.18118301 0.021945864 -0.0388107 0.18658826
-0.068485722 0.11802858 0.76500005 -0.13663504 0.027111854 -0.021336555 0.1409235
-0.065571435 0.11802858 0.76500005 -0.083006375 0.013565734 -0.008395493 0.084525563
-0.10928572 0.12094287 0.76500005 0.31849205 -0.043956425 -0.17071879 0.36402509
-0.10609334 0.12062667 0.76300001 0.346962 -0.0021177009 -0.12491089 0.36876801
-0.10278096 0.12015239 0.76000005 0.26614761 0.056024723 -0.060872495 0.27870914
-0.098965719 0.11904572 0.75300002 0.22032404 0.045794241 -0.038140148 0.22824213
-0.095969528 0.11888763 0.75200003 0.1771019 0.10605055 -0.022268206 0.20762387
-0.092857152 0.11857144 0.75000006 0.094691433 0.21372285 -0.022487491 0.23483954
-0.090240009 0.11888763 0.75200003 0.06212185 0.22651848 -0.022435933 0.23595151
-0.087375246 0.11888763 0.75200003 -0.049292095 0.16801387 -0.0094940066 0.17535253
-0.08462286 0.11904572 0.75300002 -0.1256033 0.067223221 -0.016050994 0.14336242
-0.08175429 0.11904572 0.75300002 -0.18738648 0.04196132 -0.039957643 0.19614041
-0.079409532 0.1198362 0.75800002 -0.20989712 0.076638773 -0.05007273 0.22899254
-0.076320007 0.11952001 0.75600004 -0.21340217 0.034376986 -0.053168744 0.22259645
-0.073634289 0.1198362 0.75800002 -0.21658394 0.034507889 -0.054825485 0.22606467
-0.071026668 0.12031049 0.76100004 -0.19901553 0.035131022 -0.045845926 0.20722745
-0.068485722 0.12094287 0.76500005 -0.21564025 0.14566959 -0.059708863 0.26699343
-0.065571435 0.12094287 0.76500005 -0.16953526 0.10431001 -0.032896191 0.20175466
-0.10928572 0.12385715 0.76500005 0.38389719 0.069986939 -0.15298599 0.41914189
-0.1056762 0.12304763 0.76000005 0.34113097 0.043348774 -0.11401877 0.36228406
-0.10183429 0.1219143 0.75300002 0.26021343 0.058334861 -0.057466924 0.27279377
-0.098834291 0.12175239 0.75200003 0.19991548 0.14886755 -0.035994291 0.25183991
-0.095714293 0.12142858 0.75000006 0.16782218 0.19238847 -0.034065366 0.25756177
-0.092609532 0.12110477 0.74800003 0.10643337 0.19934297 -0.020348191 0.22689144
-0.090000004 0.12142858 0.75000006 0.03911867 0.26018587 -0.033420473 0.26522422
-0.087142862 0.12142858 0.75000006 -0.067031525 0.18552065 -0.016225427 0.19792525
-0.084285721 0.12142858 0.75000006 -0.14251082 0.10431312 -0.022783905 0.17807208
-0.08164572 0.12175239 0.75200003 -0.18728107 0.091786742 -0.039686859 0.21230651
-0.079095244 0.1222381 0.75500005 -0.20222422 0.10722324 -0.047790647 0.23382773
-0.076219052 0.1222381 0.75500005 -0.22221635 0.08247485 -0.05675292 0.24372752
-0.073440008 0.12240001 0.75600004 -0.2305942 0.091255032 -0.061789125 0.25557595
-0.070933335 0.12304763 0.76000005 -0.23230976 0.10183176 -0.063477486 0.26147071
-0.06830667 0.12353334 0.76300001 -0.23051909 0.15790573 -0.070423692 0.28815407
-0.065571435 0.12385715 0.76500005 -0.28047815 0.21431902 -0.12139308 0.37327859
-0.10871429 0.12610859 0.76100004 0.38223702 0.072213694 -0.15116253 0.41733688
-0.1053981 0.12561144 0.75800002 0.33679736 0.074141309 -0.10957465 0.3618508
-0.10183429 0.12478287 0.75300002 0.26532289 0.12832189 -0.064306498 0.30165887
-0.098834291 0.12461715 0.75200003 0.21766482 0.21749687 -0.061149418 0.313723
-0.095714293 0.12428572 0.75000006 0.15412359 0.31101781 -0.079087406 0.35600698
-0.092609532 0.1239543 0.74800003 0.088176847 0.34848368 -0.086334884 0.36968872
-0.089760005 0.1239543 0.74800003 0.050618604 0.34006038 -0.076082438 0.35212475
-0.086910479 0.1239543 0.74800003 -0.066699885 0.28069794 -0.049971402 0.29280943
-0.08406096 0.1239543 0.74800003 -0.12651347 0.15356037 -0.023849726 0.20038776
-0.081211433 0.1239543 0.74800003 -0.17286134 0.16700307 -0.043391198 0.2442414
-0.078571431 0.12428572 0.75000006 -0.21066946 0.17840943 -0.064077616 0.2834034
-0.07571429 0.12428572 0.75000006 -0.23323038 0.14271459 -0.069022506 0.28200704
-0.073148578 0.12478287 0.75300002 -0.23334509 0.16516936 -0.073585331 0.29520443
-0.070746668 0.12561144 0.75800002 -0.25273451 0.19571969 -0.094256431 0.33326447
-0.068038099 0.12594287 0.76000005 -0.25811398 0.19827452 -0.098831356 0.34015179
-0.065228574 0.12610859 0.76100004 -0.2708357 0.22060272 -0.116382 0.36818787
-0.10857143 0.12883811 0.76000005 0.36365336 0.15968639 -0.14532843 0.422923
-0.1053981 0.12849906 0.75800002 0.32487449 0.18644518 -0.11770162 0.39263076
-0.10169905 0.12748191 0.75200003 0.27297434 0.21238863 -0.088955909 0.35712332
-0.098571435 0.12714286 0.75000006 0.22800359 0.30537426 -0.10695675 0.39582676
-0.095459051 0.12680382 0.74800003 0.162752 0.36999595 -0.12212011 0.42225412
-0.092485718 0.1266343 0.74700004 0.089207761 0.40451068 -0.13037059 0.43426192
-0.089640006 0.1266343 0.74700004 0.034523048 0.39197135 -0.11293536 0.40937486
-0.086794294 0.1266343 0.74700004 -0.073259339 0.25424159 -0.039557517 0.26752666
-0.083948575 0.1266343 0.74700004 -0.10434707 0.24477851 -0.043133914 0.26956514
-0.075916193 0.12748191 0.75200003 -0.22328174 0.24941972 -0.095987558 0.34825069
-0.07334286 0.12799048 0.75500005 -0.2363447 0.27047524 -0.1146799 0.37705061
-0.070746668 0.12849906 0.75800002 -0.25679421 0.2644904 -0.12595218 0.38956693
-0.068038099 0.12883811 0.76000005 -0.27644268 0.24814358 -0.13316289 0.39462405
-0.065142862 0.12883811 0.76000005 -0.28234288 0.2287221 -0.12929684 0.38567987
-0.098834291 0.13034667 0.75200003 0.2350266 0.33153075 -0.12818196 0.42612293
-0.070933335 0.13173334 0.76000005 -0.27483103 0.28283322 -0.15122795 0.42237023
-0.067859054 0.13138668 0.75800002 -0.2906251 0.26334882 -0.15334976 0.42110768
-0.064971432 0.13138668 0.75800002 -0.29900637 0.24202558 -0.15255064 0.41382712
-0.070933335 0.13462858 0.76000005 -0.29649618 0.27059159 -0.16314813 0.43329796
-0.067859054 0.13427429 0.75800002 -0.30440366 0.25180927 -0.16024241 0.42631811
