# .PCD v0.7 - Point Cloud Data file format
VERSION 0.7
FIELDS x y z normal_x normal_y normal_z curvature
SIZE 4 4 4 4 4 4 4
TYPE F F F F F F F
COUNT 1 1 1 1 1 1 1
WIDTH 407
HEIGHT 1
VIEWPOINT 0 0 0 1 0 0 0
POINTS 407
DATA ascii
-0.29802859 -0.067971431 0.91500002 -0.099878505 -0.058316663 0.0075669289 0.1159043
-0.28781146 -0.068862863 0.92700005 -0.21057487 -0.28381526 0.017367214 0.35382834
-0.28428003 -0.068862863 0.92700005 -0.19343907 -0.3788788 0.026405185 0.42622185
-0.28074858 -0.068862863 0.92700005 -0.052801542 0.16135061 -0.2216181 0.27917126
-0.22781526 -0.067822859 0.91300005 -0.27593872 -0.025070369 -0.019756854 0.27777874
-0.30566669 -0.064626671 0.91700006 -0.0075270608 -0.086245194 0.036209911 0.093840547
-0.30217335 -0.064626671 0.91700006 -0.10330573 -0.086388856 0.01089412 0.13510658
-0.29802859 -0.064485721 0.91500002 -0.14861131 -0.097744957 0.008142978 0.17806096
-0.2951867 -0.064626671 0.91700006 -0.16884783 -0.11605638 0.0066134632 0.20499368
-0.29169336 -0.064626671 0.91700006 -0.2052851 -0.14635846 0.0014244616 0.25212061
-0.28914288 -0.064838096 0.92000002 -0.20568806 -0.16260713 0.01134181 0.26244485
-0.28781146 -0.065331429 0.92700005 -0.18219543 -0.14250162 0.01141426 0.2315862
-0.28428003 -0.065331429 0.92700005 -0.21150851 -0.21019506 0.020169765 0.29887229
-0.28074858 -0.065331429 0.92700005 -0.095057309 0.0095781386 -0.020175904 0.097645789
-0.27721715 -0.065331429 0.92700005 -0.049483396 -0.083688065 0.05768925 0.11305021
-0.27309525 -0.065190479 0.92500007 0.088807881 -0.47362179 0.073132992 0.48739395
-0.23002668 -0.063992389 0.90800005 -0.084567063 0.017740279 -0.0021042824 0.086433403
-0.22781526 -0.064344764 0.91300005 -0.11538305 0.02273792 -0.0063414276 0.11777298
-0.22482859 -0.064485721 0.91500002 -0.17011964 0.043446109 -0.027715087 0.17775372
-0.30916002 -0.061133336 0.91700006 0.026139438 -0.055109993 0.030516356 0.068202861
-0.30566669 -0.061133336 0.91700006 -0.056514531 -0.094336346 0.028265446 0.11354371
-0.30217335 -0.061133336 0.91700006 -0.11663844 -0.097059295 0.007743448 0.15193747
-0.29868001 -0.061133336 0.91700006 -0.17519242 -0.1157411 0.00029975176 0.20997256
-0.2951867 -0.061133336 0.91700006 -0.19189125 -0.13445848 -0.00077846646 0.23431164
-0.29169336 -0.061133336 0.91700006 -0.22080782 -0.16805598 0.0039680004 0.27751514
-0.28977144 -0.061466672 0.92200005 -0.21287008 -0.18685226 0.012931645 0.28353953
-0.28781146 -0.061800003 0.92700005 -0.19937453 -0.18804955 0.019713253 0.27477527
-0.28428003 -0.061800003 0.92700005 -0.15859194 -0.10234831 0.018343836 0.18963933
-0.28074858 -0.061800003 0.92700005 -0.10428777 -0.0049674213 -0.0091567636 0.10480677
-0.27721715 -0.061800003 0.92700005 -0.059581634 0.0092116594 -0.0085563362 0.060893651
-0.27309525 -0.061666671 0.92500007 0.036574159 -0.14572959 0.072510272 0.16683082
-0.26957145 -0.061666671 0.92500007 0.17141913 -0.47596574 0.010473251 0.50600159
-0.26518479 -0.061466672 0.92200005 0.19185935 -0.43629301 -0.0042667091 0.47663385
-0.26110479 -0.061333336 0.92000002 0.22444174 -0.4862178 -0.063575178 0.53928065
-0.23348573 -0.060533337 0.90800005 -0.068613648 -0.0022031814 0.010445595 0.069439165
-0.23002668 -0.060533337 0.90800005 -0.087094799 -0.011971951 0.014622957 0.089121617
-0.22781526 -0.060866669 0.91300005 -0.087228648 0.0027899891 0.0066898167 0.087529279
-0.22433716 -0.060866669 0.91300005 -0.11302857 0.026550159 -0.013289332 0.11686306
-0.22085907 -0.060866669 0.91300005 -0.10901862 0.04546614 -0.028149754 0.1214275
-0.31197146 -0.057514291 0.91500002 0.067440994 -0.029018134 0.027248353 0.07831227
-0.30848575 -0.057514291 0.91500002 0.0016354695 -0.071726158 0.03199929 0.078557439
-0.30500001 -0.057514291 0.91500002 -0.076832645 -0.10715035 0.025162309 0.13422963
-0.30217335 -0.057640005 0.91700006 -0.12444538 -0.10883725 0.010368109 0.16564932
-0.29802859 -0.057514291 0.91500002 -0.16960713 -0.11968294 0.0035452545 0.20761299
-0.2951867 -0.057640005 0.91700006 -0.20215321 -0.13456419 -0.0096987486 0.24303809
-0.29169336 -0.057640005 0.91700006 -0.23234475 -0.1729179 -0.00072515011 0.28962943
-0.28914288 -0.057828575 0.92000002 -0.22398697 -0.19057736 0.018894911 0.294698
-0.28874287 -0.058457147 0.93000007 -0.19902003 -0.17389813 0.009929359 0.26447707
-0.28581336 -0.058582861 0.93200004 -0.17382872 -0.11689511 0.012842715 0.20987096
-0.28226286 -0.058582861 0.93200004 -0.064247161 0.034291804 -0.034059644 0.080397047
-0.27811432 -0.058457147 0.93000007 -0.045442723 -0.081101909 0.052525103 0.10677756
-0.27368572 -0.058268577 0.92700005 0.040373709 -0.18590409 0.079915464 0.20634158
-0.26957145 -0.058142859 0.92500007 0.16591623 -0.43234205 0.021945357 0.46360484
-0.26518479 -0.057954289 0.92200005 0.20337871 -0.43380857 -0.01519534 0.47935754
-0.26025334 -0.057640005 0.91700006 0.23010741 -0.4931823 -0.076896548 0.54962832
-0.25620002 -0.057514291 0.91500002 0.23080418 -0.49353954 -0.092464328 0.55263144
-0.25078097 -0.05707429 0.90800005 0.15164231 -0.046180815 -0.025986224 0.16063419
-0.23564002 -0.056760002 0.90300006 -0.060996063 -0.031264842 0.02430898 0.072725073
-0.2327143 -0.056885719 0.90500003 -0.072756976 -0.042665571 0.029920667 0.08949399
-0.23002668 -0.05707429 0.90800005 -0.098877482 -0.055908144 0.032350153 0.11810592
-0.22656764 -0.05707429 0.90800005 -0.05456261 -0.053784773 0.028808415 0.081852339
-0.22360002 -0.057200003 0.91000003 -0.080390237 -0.051739454 0.026917934 0.099318363
-0.21892382 -0.056885719 0.90500003 -0.064975038 -0.030457303 0.017109424 0.073770829
-0.21452382 -0.056634288 0.90100002 -0.047988601 -0.035984129 0.023449093 0.064402044
-0.31373334 -0.053733338 0.91000003 0.11071213 -0.015024021 0.027697027 0.11510874
-0.31128955 -0.053910479 0.91300005 0.031911992 -0.056727186 0.032355219 0.072685689
-0.30781144 -0.053910479 0.91300005 -0.025607482 -0.097334608 0.033738643 0.10615114
-0.30433336 -0.053910479 0.91300005 -0.072059304 -0.10043509 0.024770141 0.12606867
-0.30085525 -0.053910479 0.91300005 -0.09885671 -0.114007 0.025714278 0.15307342
-0.29737717 -0.053910479 0.91300005 -0.16861868 -0.12834626 0.014193416 0.21238285
-0.29454288 -0.054028574 0.91500002 -0.2032005 -0.13652277 0.00021651387 0.24480392
-0.29105717 -0.054028574 0.91500002 -0.26417798 -0.17716494 0.00071468949 0.31808478
-0.28977144 -0.054441907 0.92200005 -0.23772889 -0.1897577 0.0043220222 0.30420667
-0.26604763 -0.054619052 0.92500007 0.19654351 -0.43981791 -0.011754811 0.48187897
-0.26110479 -0.054323815 0.92000002 0.22502433 -0.49522677 -0.074385434 0.54901612
-0.25676003 -0.05414667 0.91700006 0.22956142 -0.50898355 -0.099470049 0.56714809
-0.25271431 -0.054028574 0.91500002 0.20851296 -0.1333708 -0.022855699 0.24857153
-0.24922858 -0.054028574 0.91500002 0.15455367 -0.057444543 -0.022566915 0.16642109
-0.24440001 -0.053733338 0.91000003 0.070684664 -0.022316143 -0.0064750016 0.074406028
-0.23960954 -0.053438097 0.90500003 -0.026827283 -0.055520013 0.03317973 0.07002192
-0.23616192 -0.053438097 0.90500003 -0.047337838 -0.051439673 0.033663094 0.0775894
-0.2327143 -0.053438097 0.90500003 -0.052528471 -0.056802467 0.033410043 0.084273316
-0.22926669 -0.053438097 0.90500003 -0.067324474 -0.074399546 0.038733512 0.10755539
-0.22656764 -0.053615242 0.90800005 -0.066123948 -0.085490972 0.039624542 0.1151138
-0.22310859 -0.053615242 0.90800005 -0.085415266 -0.078998566 0.035470277 0.12163339
-0.22085907 -0.053910479 0.91300005 -0.07878834 -0.0899176 0.037457228 0.12528297
-0.21738097 -0.053910479 0.91300005 0.011199836 -0.094637677 0.035068363 0.10154563
-0.31720003 -0.050266668 0.91000003 0.17603792 0.01598452 0.015729606 0.17746064
-0.31373334 -0.050266668 0.91000003 0.06559822 -0.032963842 0.029301196 0.079046197
-0.31026667 -0.050266668 0.91000003 -0.0079143494 -0.078807071 0.036930144 0.08739008
-0.30612573 -0.050156195 0.90800005 -0.067961007 -0.095118999 0.034546167 0.12190062
-0.30333334 -0.050266668 0.91000003 -0.095537469 -0.12018993 0.038098305 0.15819137
-0.30085525 -0.050432384 0.91300005 -0.11794993 -0.12387203 0.032993197 0.17419821
-0.29737717 -0.050432384 0.91300005 -0.16059208 -0.14163703 0.031292319 0.21640258
-0.29454288 -0.050542861 0.91500002 -0.19709209 -0.14170295 0.014310569 0.24316621
-0.29105717 -0.050542861 0.91500002 -0.28827524 -0.19851792 -0.0066393614 0.35008007
-0.29071429 -0.05109524 0.92500007 -0.2426562 -0.18595847 -0.010486931 0.30589631
-0.25409526 -0.050819051 0.92000002 0.22672135 -0.49624676 -0.097917497 0.55430251
-0.24922858 -0.050542861 0.91500002 0.15467301 -0.062643811 -0.021470666 0.16825272
-0.24386287 -0.050156195 0.90800005 0.052230597 -0.058405489 0.018589854 0.080528371
-0.23908001 -0.049880002 0.90300006 -0.046701007 -0.085904777 0.049306244 0.10950671
-0.23564002 -0.049880002 0.90300006 -0.06423983 -0.08096242 0.045898318 0.11308548
-0.2327143 -0.049990479 0.90500003 -0.061399877 -0.07458134 0.040683568 0.10482115
-0.22926669 -0.049990479 0.90500003 -0.071998172 -0.088165835 0.042033613 0.12134156
-0.22532001 -0.049880002 0.90300006 -0.10036422 -0.095216677 0.043126315 0.14491056
-0.22188002 -0.049880002 0.90300006 -0.09602128 -0.10519721 0.051766962 0.15154655
-0.2179562 -0.049769528 0.90100002 -0.039292667 -0.14524585 0.06231752 0.16286111
-0.21380953 -0.049603812 0.89800006 0.10189693 -0.26073042 0.050297469 0.28441724
-0.31720003 -0.046800002 0.91000003 0.12525947 -0.020563915 0.02907005 0.13022241
-0.31304383 -0.046697147 0.90800005 0.033810284 -0.048612118 0.032150447 0.067378961
-0.3095848 -0.046697147 0.90800005 -0.027697302 -0.062827334 0.02908048 0.074566007
-0.3051143 -0.046542861 0.90500003 -0.073702112 -0.080898508 0.03332752 0.11439971
-0.30266669 -0.046697147 0.90800005 -0.092392229 -0.098127097 0.0375925 0.13992301
-0.29986668 -0.046800002 0.91000003 -0.13561472 -0.1207303 0.034724087 0.1848592
-0.29737717 -0.046954289 0.91300005 -0.17068116 -0.13504365 0.030214757 0.21973115
-0.2951867 -0.047160003 0.91700006 -0.20368217 -0.146916 0.01253891 0.25145173
-0.29169336 -0.047160003 0.91700006 -0.30377993 -0.20436674 -0.016001672 0.36647519
-0.24252002 -0.046440002 0.90300006 -0.046767369 -0.10074271 0.059213907 0.12586726
-0.2385505 -0.046337146 0.90100002 -0.065092236 -0.12520453 0.067582995 0.15646288
-0.23564002 -0.046440002 0.90300006 -0.072967723 -0.12508005 0.062510163 0.15772389
-0.23220001 -0.046440002 0.90300006 -0.11165308 -0.14245868 0.060686052 0.19090229
-0.22926669 -0.046542861 0.90500003 -0.075270936 -0.11062549 0.049827784 0.14278138
-0.22532001 -0.046440002 0.90300006 -0.10165948 -0.13233989 0.057923079 0.17664535
-0.22188002 -0.046440002 0.90300006 -0.089505963 -0.11773051 0.057221353 0.15857513
-0.2179562 -0.046337146 0.90100002 -0.014126711 -0.1588286 0.065983474 0.17256856
-0.21333335 -0.046080004 0.89600003 0.12415697 -0.347029 0.036663651 0.3703894
-0.3206667 -0.043333337 0.91000003 0.20766342 -0.017203018 0.023000896 0.20964035
-0.31650287 -0.0432381 0.90800005 0.063337296 -0.043522418 0.03333509 0.083767787
-0.31304383 -0.0432381 0.90800005 0.024467126 -0.045884013 0.030017376 0.060041867
-0.30856192 -0.043095242 0.90500003 -0.058682259 -0.054700539 0.023384064 0.083561778
-0.3051143 -0.043095242 0.90500003 -0.083254248 -0.060925752 0.022224873 0.10553276
-0.30266669 -0.0432381 0.90800005 -0.084724441 -0.080285668 0.032893509 0.12126831
-0.29986668 -0.043333337 0.91000003 -0.13910055 -0.093541726 0.023565531 0.16927597
-0.29737717 -0.043476194 0.91300005 -0.18195786 -0.12476182 0.024147689 0.22193983
-0.2951867 -0.043666668 0.91700006 -0.22879431 -0.16009235 0.011963189 0.2794987
-0.29264763 -0.043809526 0.92000002 -0.3030543 -0.20106319 -0.026012778 0.36461622
-0.24596001 -0.043000001 0.90300006 -0.041332949 -0.093736157 0.059302807 0.11837104
-0.24198288 -0.042904764 0.90100002 -0.086236455 -0.12197784 0.072316289 0.16596675
-0.23775621 -0.042761907 0.89800006 -0.14415486 -0.19021063 0.086442381 0.25383654
-0.23564002 -0.043000001 0.90300006 -0.092718527 -0.152346 0.072255582 0.19242375
-0.23220001 -0.043000001 0.90300006 -0.1107274 -0.18049785 0.071274728 0.2234281
-0.22926669 -0.043095242 0.90500003 -0.088191323 -0.16179113 0.067757338 0.19632916
-0.22532001 -0.043000001 0.90300006 -0.08880695 -0.18378285 0.073401898 0.21691161
-0.22188002 -0.043000001 0.90300006 -0.07892096 -0.16773349 0.071251184 0.1985945
-0.21844001 -0.043000001 0.90300006 -0.013561174 -0.18913427 0.071991414 0.20282614
-0.21452382 -0.042904764 0.90100002 0.063788593 -0.24397203 0.064469725 0.26028386
-0.31996194 -0.039779048 0.90800005 0.13689789 -0.057491705 0.036790878 0.15297025
-0.31545717 -0.03964762 0.90500003 0.054252084 -0.031417608 0.024962336 0.067479424
-0.31200954 -0.03964762 0.90500003 -0.019874863 -0.035117716 0.020058692 0.045062348
-0.30856192 -0.03964762 0.90500003 -0.05993659 -0.045281008 0.018084645 0.077264607
-0.3051143 -0.03964762 0.90500003 -0.085364506 -0.041541934 0.0099923015 0.095460348
-0.30266669 -0.039779048 0.90800005 -0.08032091 -0.061969429 0.023785383 0.10419887
-0.29986668 -0.039866671 0.91000003 -0.13978904 -0.095748231 0.024692267 0.17122619
-0.29802859 -0.040085718 0.91500002 -0.20232587 -0.12958643 0.010885745 0.24051382
-0.2951867 -0.040173337 0.91700006 -0.27749208 -0.19761841 -0.005053103 0.34070578
-0.24596001 -0.039560001 0.90300006 -0.05776073 -0.083573297 0.05575639 0.11588603
-0.24198288 -0.039472383 0.90100002 -0.13447826 -0.15453348 0.076169997 0.21855631
-0.23722668 -0.039253335 0.89600003 -0.1756732 -0.21425214 0.077897966 0.28780749
-0.23511811 -0.039472383 0.90100002 -0.13524695 -0.19565454 0.083364069 0.25203571
-0.23348573 -0.039779048 0.90800005 -0.1374836 -0.19315064 0.072774678 0.24800214
-0.23002668 -0.039779048 0.90800005 -0.1202298 -0.18928127 0.064942479 0.23345262
-0.22656764 -0.039779048 0.90800005 -0.10717509 -0.20533845 0.072943568 0.24283975
-0.22237144 -0.03964762 0.90500003 -0.070714332 -0.16889702 0.072748721 0.19702563
-0.21892382 -0.03964762 0.90500003 0.0071649626 -0.20965426 0.071817875 0.22172968
-0.2154762 -0.03964762 0.90500003 0.072701737 -0.24570128 0.059137285 0.26296744
-0.21202858 -0.03964762 0.90500003 0.1363463 -0.29836312 0.035952419 0.3300052
-0.20696764 -0.039340954 0.89800006 0.16847719 -0.47012275 -0.0079732537 0.49946326
-0.3206667 -0.036400001 0.91000003 0.13551712 -0.066011623 0.040157825 0.15599704
-0.31545717 -0.036200002 0.90500003 0.0048066303 -0.031544119 0.020755142 0.038064566
-0.31132001 -0.036120001 0.90300006 -0.033923686 -0.037691265 0.019937783 0.054488193
-0.30719811 -0.036040001 0.90100002 -0.03498669 -0.035938799 0.019390523 0.053774141
-0.30376574 -0.036040001 0.90100002 -0.093529642 -0.040174335 0.010653764 0.10234879
-0.30166668 -0.036200002 0.90500003 -0.11903989 -0.047549263 0.0090086758 0.1285013
-0.29986668 -0.036400001 0.91000003 -0.16526407 -0.083587706 0.010826081 0.18551637
-0.24801907 -0.035920002 0.89800006 -0.26620403 -0.25883949 0.050445169 0.37470946
-0.24541526 -0.036040001 0.90100002 -0.22392718 -0.21057074 0.063832849 0.31393957
-0.24198288 -0.036040001 0.90100002 -0.19774431 -0.19757009 0.067773402 0.2876282
-0.23775621 -0.035920002 0.89800006 -0.18536302 -0.21200857 0.075042754 0.2914421
-0.23616192 -0.036200002 0.90500003 -0.16610229 -0.22653061 0.083851755 0.29315048
-0.23348573 -0.036320001 0.90800005 -0.14550829 -0.22314134 0.075527191 0.27689183
-0.22013335 -0.036400001 0.91000003 0.0003003329 -0.22933702 0.071540236 0.24023648
-0.21666668 -0.036400001 0.91000003 0.076063611 -0.26128742 0.056871116 0.27801281
-0.21202858 -0.036200002 0.90500003 0.11839174 -0.51023012 -0.021995276 0.52424723
-0.20696764 -0.035920002 0.89800006 0.18327568 -0.5367676 -0.058444142 0.57019746
-0.20309335 -0.035840001 0.89600003 0.1673459 -0.64301527 -0.1390737 0.67883337
-0.31476003 -0.032680001 0.90300006 -0.026011981 -0.036150932 0.02093336 0.049210958
-0.30959621 -0.032499049 0.89800006 -0.035687216 -0.037121579 0.021130979 0.055660646
-0.30719811 -0.032607622 0.90100002 -0.039957367 -0.040769368 0.021547258 0.06101653
-0.3051143 -0.032752384 0.90500003 -0.077620476 -0.041527212 0.013472825 0.089055963
-0.30333334 -0.032933336 0.91000003 -0.1040795 -0.032490551 4.7385693e-06 0.10903292
-0.25429335 -0.03242667 0.89600003 -0.29232237 -0.25300372 0.035385847 0.38822082
-0.25088 -0.03242667 0.89600003 -0.27655834 -0.25755832 0.044982731 0.38058409
-0.24746668 -0.03242667 0.89600003 -0.29492319 -0.28235984 0.031387061 0.40950203
-0.24459811 -0.032499049 0.89800006 -0.29199177 -0.2939311 0.034205616 0.41572192
-0.24198288 -0.032607622 0.90100002 -0.24623905 -0.248115 0.057516664 0.35426387
-0.23908001 -0.032680001 0.90300006 -0.22585928 -0.23758063 0.067435533 0.33467075
-0.18748002 -0.032680001 0.90300006 -0.1483524 0.15370837 -0.2699984 0.34428743
-0.18404001 -0.032680001 0.90300006 0.00068069808 0.15885171 -0.25019163 0.29636157
-0.31301716 -0.029078098 0.89800006 -0.085758217 -0.012928635 0.0010816157 0.086734027
-0.30821717 -0.028948573 0.89400005 -0.21245477 -0.036159053 -0.021182507 0.21654838
-0.30617526 -0.029078098 0.89800006 -0.17453852 -0.056803584 -0.00010642409 0.18354933
-0.30376574 -0.029175241 0.90100002 -0.18459672 -0.070535421 -0.0019279718 0.19762315
-0.25372574 -0.028948573 0.89400005 -0.29761958 -0.23909789 0.033440262 0.38322768
-0.25032002 -0.028948573 0.89400005 -0.28350449 -0.24684262 0.033777118 0.37742147
-0.24746668 -0.029013336 0.89600003 -0.29076201 -0.25426859 0.026800662 0.38718644
-0.24405335 -0.029013336 0.89600003 -0.29071498 -0.26262155 0.031832218 0.39306304
-0.24305716 -0.029304763 0.90500003 -0.29553339 -0.2950595 0.036050647 0.41916552
-0.23960954 -0.029304763 0.90500003 -0.28584146 -0.29146293 0.044701844 0.41067535
-0.18796001 -0.028786669 0.88900006 -0.013521606 0.094065279 -0.10529098 0.14183547
-0.18457335 -0.028786669 0.88900006 0.017865129 0.10378546 -0.12317458 0.16205728
-0.18077905 -0.028721906 0.88700002 -0.032693341 0.091602296 -0.10504812 0.14316055
-0.31057715 -0.025457144 0.89100003 -0.16982524 -0.041475981 -0.0012603402 0.17482121
-0.30821717 -0.025542859 0.89400005 -0.2055617 -0.025126189 -0.023010164 0.20836604
-0.30549335 -0.025600001 0.89600003 -0.21528625 -0.03708379 -0.02036193 0.21940371
-0.30376574 -0.025742859 0.90100002 -0.19186167 -0.05292654 -0.009214431 0.19924112
-0.30033335 -0.025742859 0.90100002 -0.19618922 -0.071526617 -0.0036306381 0.20885271
-0.25372574 -0.025542859 0.89400005 -0.33565131 -0.23704053 0.0021888316 0.41091946
-0.25032002 -0.025542859 0.89400005 -0.30987713 -0.24581152 0.013878375 0.3957774
-0.24746668 -0.025600001 0.89600003 -0.27920145 -0.24435654 0.031644762 0.37237746
-0.24459811 -0.025657145 0.89800006 -0.29108605 -0.25488186 0.028370619 0.38794425
-0.18984002 -0.025200002 0.88200003 -0.023842057 0.047467351 -0.040080428 0.066543475
-0.18605715 -0.02514286 0.88000005 -0.053800158 0.025992006 -0.018780321 0.062631793
-0.18312001 -0.025200002 0.88200003 -0.044852942 0.015268147 -0.010762364 0.048587359
-0.17976001 -0.025200002 0.88200003 -0.050958544 -0.00053858757 0.00073996186 0.050966762
-0.31162289 -0.022137145 0.89400005 -0.17546707 -0.046697795 -0.001439482 0.18158042
-0.30821717 -0.022137145 0.89400005 -0.22427362 -0.031510368 -0.032055527 0.22873372
-0.30549335 -0.022186669 0.89600003 -0.080537573 0.0080735087 -0.0090498924 0.081445582
-0.29933336 -0.022236193 0.89800006 -0.04037194 0.029433489 -0.02262044 0.054844398
-0.25713146 -0.022137145 0.89400005 -0.37627923 -0.22529411 -0.028593838 0.43950099
-0.25372574 -0.022137145 0.89400005 -0.35392538 -0.19748253 -0.028099269 0.40626603
-0.25032002 -0.022137145 0.89400005 -0.31124246 -0.19551589 0.0015135407 0.36756036
-0.24801907 -0.022236193 0.89800006 -0.31075856 -0.22868274 0.0098741651 0.38595879
-0.19232382 -0.021740954 0.87800002 -0.038459148 0.033867091 -0.023762435 0.056486629
-0.18897906 -0.021740954 0.87800002 -0.067261077 0.014062315 -0.0061493218 0.068989962
-0.18605715 -0.021790478 0.88000005 -0.081159174 0.013371766 -0.0068567395 0.082538664
-0.18228954 -0.021740954 0.87800002 -0.08902815 -0.0040050149 0.0059347451 0.089315578
-0.17894477 -0.021740954 0.87800002 -0.08228004 -0.0021592975 0.001940012 0.082331225
-0.17560001 -0.021740954 0.87800002 -0.080722302 -0.0066700578 0.0046801865 0.081132509
-0.30890667 -0.018773334 0.89600003 -0.20630759 -0.075450987 -0.00030425191 0.21967195
-0.30549335 -0.018773334 0.89600003 -0.041008964 -0.019356698 0.012536019 0.047048576
-0.30140573 -0.01873143 0.89400005 0.08772102 -0.055094168 0.022784472 0.10606355
-0.25966287 -0.018668573 0.89100003 -0.1689575 -0.04040429 0.00883165 0.1739458
-0.25626859 -0.018668573 0.89100003 -0.22914945 -0.076434314 0.0032578111 0.24158287
-0.25372574 -0.01873143 0.89400005 -0.35705763 -0.18969524 -0.031853378 0.40557253
-0.25088 -0.018773334 0.89600003 -0.33174625 -0.18063384 -0.016598076 0.37810007
-0.24801907 -0.01881524 0.89800006 -0.31368837 -0.23926345 0.0076131821 0.39459518
-0.19901335 -0.018396191 0.87800002 -0.01175959 0.035135061 -0.028217822 0.046572585
-0.19566858 -0.018396191 0.87800002 -0.032971196 0.03175059 -0.022531003 0.051018093
-0.19232382 -0.018396191 0.87800002 -0.070643961 0.015059531 -0.0056887865 0.072454959
-0.18897906 -0.018396191 0.87800002 -0.094973147 -0.012150675 0.015621573 0.09701325
-0.1856343 -0.018396191 0.87800002 -0.11448176 -0.021331847 0.019189298 0.11802267
-0.18166667 -0.018333334 0.87500006 -0.11586961 -0.026254565 0.020586312 0.12057722
-0.17833334 -0.018333334 0.87500006 -0.11597106 -0.026783943 0.01806736 0.12038727
-0.17500001 -0.018333334 0.87500006 -0.10233915 -0.037195414 0.022467703 0.11118273
-0.30617526 -0.015394287 0.89800006 -0.16990338 -0.0060462654 -0.026586503 0.17207719
-0.29129907 -0.015154286 0.88400006 0.26423532 -0.53825557 -0.046516985 0.60141766
-0.28793144 -0.015154286 0.88400006 0.23995456 -0.4839659 -0.00064703822 0.54018664
-0.28456384 -0.015154286 0.88400006 0.16176391 -0.4883554 0.043887049 0.51631832
-0.28119621 -0.015154286 0.88400006 0.11335168 -0.46598765 0.067622334 0.48432001
-0.27720001 -0.015120001 0.88200003 0.03844732 -0.2171205 0.094543278 0.23991235
-0.25849715 -0.015205715 0.88700002 -0.07684195 0.014387369 -0.011015385 0.078949481
-0.25569335 -0.015240001 0.88900006 -0.11211748 -6.5743923e-05 -0.0062983334 0.11229427
-0.25230667 -0.015240001 0.88900006 -0.028629197 0.04163146 -0.031977355 0.059794318
-0.25088 -0.015360001 0.89600003 -0.34643409 -0.17415923 -0.038215369 0.389626
-0.20166668 -0.015000001 0.87500006 -0.04442247 0.0060286522 -0.00017055869 0.044830009
-0.19833335 -0.015000001 0.87500006 -0.054261766 -0.0051131546 0.0090849102 0.055254135
-0.1945543 -0.014965715 0.87300003 -0.099228323 -0.040162444 0.033582926 0.11219222
-0.19122858 -0.014965715 0.87300003 -0.11474349 -0.050058126 0.039007813 0.13112396
-0.18790287 -0.014965715 0.87300003 -0.11100873 -0.046572685 0.035855711 0.12560886
-0.18500002 -0.015000001 0.87500006 -0.12389857 -0.034550697 0.028422594 0.13172869
-0.18125144 -0.014965715 0.87300003 -0.12919265 -0.055796415 0.040347606 0.14639641
-0.17833334 -0.015000001 0.87500006 -0.13393122 -0.061186254 0.040917665 0.15282534
-0.17500001 -0.015000001 0.87500006 -0.11433734 -0.057436705 0.034430474 0.13250457
-0.29228765 -0.011826667 0.88700002 0.26273313 -0.51201361 -0.021884203 0.57590413
-0.2889086 -0.011826667 0.88700002 0.25682417 -0.56243801 -0.052917957 0.62056059
-0.28392002 -0.011760001 0.88200003 0.12154589 -0.48784935 0.057317197 0.50601941
-0.28056002 -0.011760001 0.88200003 0.12356615 -0.43325609 0.075125724 0.45675302
-0.27720001 -0.011760001 0.88200003 0.041760493 -0.19474317 0.092627555 0.21965589
-0.26986668 -0.011733335 0.88000005 -0.033837281 -0.015294164 0.011875302 0.038985841
-0.2665143 -0.011733335 0.88000005 -0.037182093 0.026125222 -0.020244181 0.049747985
-0.26316193 -0.011733335 0.88000005 -0.0077188108 0.057411373 -0.050379157 0.07677047
-0.26040003 -0.011760001 0.88200003 -0.02632322 0.060185432 -0.051427931 0.083426796
-0.25762287 -0.011786668 0.88400006 -0.020529186 0.066214085 -0.058003396 0.090388864
-0.25569335 -0.011853334 0.88900006 -0.085234679 0.024091512 -0.020743519 0.090970568
-0.25287431 -0.011880001 0.89100003 -0.13423431 0.0041422546 -0.015924811 0.13523908
-0.20500001 -0.011666668 0.87500006 -0.042241525 0.0033228695 0.0024740696 0.042444184
-0.20074478 -0.011613335 0.87100005 -0.088352241 -0.020085782 0.019372612 0.092654496
-0.19697335 -0.011586667 0.86900002 -0.10826688 -0.033273399 0.027585477 0.11657527
-0.19366287 -0.011586667 0.86900002 -0.12896685 -0.038830191 0.029760391 0.13793446
-0.1903524 -0.011586667 0.86900002 -0.12498113 -0.038793176 0.030308455 0.1343272
-0.18704192 -0.011586667 0.86900002 -0.11800924 -0.03997767 0.031360537 0.128483
-0.18373144 -0.011586667 0.86900002 -0.1240128 -0.046468884 0.033549756 0.13661668
-0.18042096 -0.011586667 0.86900002 -0.13555014 -0.062859312 0.039267987 0.15448983
-0.17792572 -0.011640001 0.87300003 -0.12777267 -0.069615409 0.041465402 0.15129951
-0.17500001 -0.011666668 0.87500006 -0.12742436 -0.079311252 0.047017664 0.15728287
-0.28392002 -0.0084000006 0.88200003 0.12594283 -0.46091813 0.065780044 0.48232162
-0.28056002 -0.0084000006 0.88200003 0.12707855 -0.41950536 0.083509862 0.44621474
-0.2778286 -0.008419048 0.88400006 0.10470635 -0.37022856 0.098773539 0.39722639
-0.27446097 -0.008419048 0.88400006 -0.0091059497 -0.045388728 0.032075912 0.056319792
-0.27048001 -0.0084000006 0.88200003 -0.022882527 -0.016504347 0.012828588 0.030993164
-0.2665143 -0.0083809532 0.88000005 -0.031525023 0.031666368 -0.025655866 0.051524844
-0.26256382 -0.0083619049 0.87800002 0.005786933 0.039610595 -0.034576863 0.05289657
-0.25980955 -0.0083809532 0.88000005 -0.027384732 0.054300755 -0.047127247 0.076938108
-0.25645715 -0.0083809532 0.88000005 -0.034964945 0.058295518 -0.051293403 0.085158251
-0.25310478 -0.0083809532 0.88000005 -0.032256082 0.061149865 -0.053774714 0.087586991
-0.2471981 -0.0082952389 0.87100005 0.13236961 -0.30968881 0.07037878 0.34406692
-0.24388002 -0.0082952389 0.87100005 0.15783398 -0.49879199 0.012211025 0.52331072
-0.20406286 -0.0082952389 0.87100005 -0.061975189 -0.028329581 0.026699662 0.073187165
-0.20028383 -0.0082761906 0.86900002 -0.096263789 -0.036258876 0.028607249 0.10676984
-0.19652002 -0.0082571432 0.86700004 -0.11336088 -0.04042837 0.031328261 0.12436479
-0.19321716 -0.0082571432 0.86700004 -0.12342667 -0.040028721 0.029838234 0.13314188
-0.1903524 -0.0082761906 0.86900002 -0.12214316 -0.03995961 0.030351341 0.13204895
-0.18661144 -0.0082571432 0.86700004 -0.12725954 -0.040933996 0.02948004 0.13689286
-0.18373144 -0.0082761906 0.86900002 -0.14488965 -0.057583675 0.038146257 0.16051176
-0.18042096 -0.0082761906 0.86900002 -0.15734169 -0.071787745 0.03967911 0.17743821
-0.17792572 -0.0083142864 0.87300003 -0.15663324 -0.077457994 0.043863088 0.18016016
-0.17460001 -0.0083142864 0.87300003 -0.16690907 -0.10471879 0.051993698 0.20378423
-0.27877146 -0.0050685718 0.88700002 0.1290704 -0.42268351 0.086090624 0.45025784
-0.27539241 -0.0050685718 0.88700002 0.040993057 -0.1921069 0.093055636 0.21735878
-0.26986668 -0.0050285719 0.88000005 -0.014348664 -0.058494717 0.040944815 0.072828524
-0.2665143 -0.0050285719 0.88000005 -0.035454247 0.011917174 -0.0087510943 0.038413595
-0.26256382 -0.0050171432 0.87800002 -0.018026071 0.023944706 -0.018608987 0.035278641
-0.25587431 -0.0050171432 0.87800002 0.0031464957 0.022854537 -0.019605309 0.030275377
-0.2471981 -0.0049771434 0.87100005 0.15547614 -0.45322281 0.037718087 0.48063126
-0.24332002 -0.0049657146 0.86900002 0.13140684 -0.52342695 0.012023777 0.53980374
-0.24000955 -0.0049657146 0.86900002 0.154937 -0.53664637 -0.013315529 0.55872363
-0.20265716 -0.0049428577 0.86500007 -0.0660557 -0.047644109 0.033558667 0.088088028
-0.19936192 -0.0049428577 0.86500007 -0.078162096 -0.054290295 0.039200455 0.10292437
-0.19606668 -0.0049428577 0.86500007 -0.097862661 -0.055668399 0.04011181 0.11951999
-0.19321716 -0.0049542859 0.86700004 -0.11814164 -0.051416606 0.038193136 0.13438687
-0.1899143 -0.0049542859 0.86700004 -0.12470969 -0.043617904 0.034017742 0.13642666
-0.18704192 -0.0049657146 0.86900002 -0.14328647 -0.053183496 0.03853187 0.15762043
-0.18373144 -0.0049657146 0.86900002 -0.156749 -0.069156438 0.042725563 0.17657387
-0.1808362 -0.0049771434 0.87100005 -0.16027322 -0.074347138 0.043073297 0.18185245
-0.1775181 -0.0049771434 0.87100005 -0.17175552 -0.097492382 0.045589536 0.20268974
-0.2665143 -0.0016761906 0.88000005 0.0018509608 -0.046915144 0.034133613 0.058047913
-0.25051621 -0.0016590477 0.87100005 0.14886032 -0.4423486 0.056959361 0.47018725
-0.2471981 -0.0016590477 0.87100005 0.15875764 -0.46378046 0.03975293 0.49180952
-0.24388002 -0.0016590477 0.87100005 0.13216475 -0.51216161 0.020759493 0.52934676
-0.24056192 -0.0016590477 0.87100005 0.1602633 -0.52056092 -0.0039260387 0.5446865
-0.23724383 -0.0016590477 0.87100005 0.16198438 -0.542656 -0.022108406 0.56674796
-0.2052381 -0.0016419048 0.86200005 -0.047706522 -0.093242735 0.053138763 0.11744721
-0.20195431 -0.0016419048 0.86200005 -0.07386405 -0.092001021 0.051515579 0.12873982
-0.19936192 -0.0016476192 0.86500007 -0.090096965 -0.09305504 0.051356763 0.13933493
-0.19606668 -0.0016476192 0.86500007 -0.11241503 -0.084163666 0.050548732 0.14925091
-0.19277143 -0.0016476192 0.86500007 -0.12621202 -0.086736694 0.055701464 0.16295822
-0.1899143 -0.0016514286 0.86700004 -0.1342677 -0.082879737 0.057101727 0.16780189
-0.18661144 -0.0016514286 0.86700004 -0.15983146 -0.082137614 0.049487233 0.18639117
-0.18373144 -0.0016552382 0.86900002 -0.16907421 -0.083246022 0.045776874 0.19393687
-0.18125144 -0.0016628572 0.87300003 -0.18727241 -0.095651701 0.049257368 0.21597798
-0.17792572 -0.0016628572 0.87300003 -0.19599941 -0.12050459 0.049484491 0.23534197
-0.25587431 0.0016723811 0.87800002 0.045540761 -0.070952624 0.043327034 0.094791703
-0.25109145 0.0016628572 0.87300003 0.1528022 -0.4451763 0.058874786 0.47433814
-0.24776573 0.0016628572 0.87300003 0.15209404 -0.48293528 0.03716585 0.50768137
-0.24444002 0.0016628572 0.87300003 0.12850089 -0.5126428 0.024053633 0.52904981
-0.24166669 0.0016666668 0.87500006 0.15170364 -0.51641482 0.010433197 0.53833735
-0.23833334 0.0016666668 0.87500006 0.15743586 -0.53383678 -0.0082651079 0.55662918
-0.21082287 0.0016342858 0.85800004 -0.10531506 -0.34395194 0.070090473 0.36647904
-0.2075543 0.0016342858 0.85800004 -0.067420684 -0.22508524 0.079545587 0.24806535
-0.20476192 0.0016380954 0.86000001 -0.096527345 -0.18386549 0.072308749 0.21989225
-0.20148572 0.0016380954 0.86000001 -0.11919162 -0.18737246 0.069003403 0.23254365
-0.19820954 0.0016380954 0.86000001 -0.12703596 -0.17238331 0.066592127 0.22425131
-0.19493334 0.0016380954 0.86000001 -0.13195015 -0.12923622 0.054566652 0.19258858
-0.19210286 0.0016419048 0.86200005 -0.14542751 -0.11236376 0.047370523 0.18978603
-0.18881907 0.0016419048 0.86200005 -0.15261634 -0.10967021 0.041833431 0.19253398
-0.18661144 0.0016514286 0.86700004 -0.17293632 -0.12056975 0.063260674 0.2201044
-0.18373144 0.0016552382 0.86900002 -0.19233099 -0.10844877 0.050708652 0.22654738
-0.2497524 0.0050285719 0.88000005 0.15257876 -0.4493258 0.057388127 0.47798258
-0.24584001 0.0050171432 0.87800002 0.13587216 -0.51545823 0.028324664 0.53381711
-0.24249525 0.0050171432 0.87800002 0.14040734 -0.51522851 0.019721627 0.53438151
-0.23833334 0.0050000004 0.87500006 0.14973474 -0.54044199 -0.0082764626 0.5608623
-0.23500001 0.0050000004 0.87500006 0.16669163 -0.55678201 -0.034050822 0.58219564
-0.22494097 0.0049257148 0.86200005 0.13167948 -0.54095531 -0.022541732 0.55720758
-0.22062859 0.0049028574 0.85800004 -0.06087425 -0.57243413 -0.023726225 0.57615054
-0.21736002 0.0049028574 0.85800004 -0.080908328 -0.52750343 -0.0051219165 0.53369677
-0.21409145 0.0049028574 0.85800004 -0.092377983 -0.49921364 0.012210935 0.50783563
-0.21082287 0.0049028574 0.85800004 -0.11215332 -0.41399604 0.04731974 0.43152085
-0.2075543 0.0049028574 0.85800004 -0.076334216 -0.30180404 0.0743514 0.32006362
-0.2052381 0.0049257148 0.86200005 -0.076140359 -0.22794615 0.07937938 0.25309658
-0.20195431 0.0049257148 0.86200005 -0.10293345 -0.2068954 0.073343754 0.24244651
-0.19867049 0.0049257148 0.86200005 -0.12455308 -0.19050512 0.072342426 0.23882858
-0.19538668 0.0049257148 0.86200005 -0.1457068 -0.18114668 0.067522526 0.24208239
-0.19165716 0.0049142861 0.86000001 -0.1678181 -0.17139754 0.063956827 0.24825493
-0.18838097 0.0049142861 0.86000001 -0.16858938 -0.16209671 0.053015977 0.23980913
-0.18618096 0.0049428577 0.86500007 -0.16689555 -0.13521516 0.046617597 0.21979642
-0.23007812 0.0082761906 0.86900002 0.16758344 -0.59842789 -0.077838182 0.62630582
-0.22572382 0.0082380958 0.86500007 0.14588815 -0.56710148 -0.050781578 0.58776373
-0.22165716 0.0082095247 0.86200005 -0.010991853 -0.58897477 -0.041686714 0.59055048
-0.21837334 0.0082095247 0.86200005 -0.076008491 -0.56629479 -0.020105243 0.57172662
-0.21459049 0.0081904763 0.86000001 -0.089303508 -0.51984811 -0.00095969439 0.52746385
-0.21131431 0.0081904763 0.86000001 -0.10969868 -0.4935618 0.012602925 0.5057627
-0.20852192 0.0082095247 0.86200005 -0.087226853 -0.36010051 0.061360002 0.37556085
-0.20595239 0.0082380958 0.86500007 -0.084510721 -0.31200963 0.078612357 0.33267397
-0.20265716 0.0082380958 0.86500007 -0.12019685 -0.31683028 0.075804591 0.34723917
-0.22676763 0.011586667 0.86900002 0.15907648 -0.61735302 -0.0961245 0.64472473
-0.22242859 0.011533334 0.86500007 0.049467035 -0.62726182 -0.084283352 0.63482916
-0.21913335 0.011533334 0.86500007 -0.0091832988 -0.59095919 -0.040705889 0.59243065
-0.21508954 0.011493335 0.86200005 -0.072929084 -0.55466473 -0.025355786 0.56001294
-0.21180573 0.011493335 0.86200005 -0.085810199 -0.51804566 -0.001740247 0.52510732
-0.20924763 0.011533334 0.86500007 -0.10849964 -0.49224681 0.011654794 0.5041973
-0.20595239 0.011533334 0.86500007 -0.13324523 -0.47319132 0.016285092 0.49186331
-0.20312573 0.01156 0.86700004 -0.14445299 -0.46982065 0.028351486 0.49234328
-0.22014669 0.014897143 0.86900002 0.01299879 -0.63406801 -0.092750609 0.64094764
-0.2168362 0.014897143 0.86900002 -0.044157878 -0.6099425 -0.059461504 0.6144228
-0.2130343 0.014862858 0.86700004 -0.061346371 -0.57041335 -0.0394122 0.57505488
-0.20973144 0.014862858 0.86700004 -0.10477667 -0.54403514 -0.023288041 0.5545221
-0.20690477 0.014897143 0.86900002 -0.14593616 -0.54826874 -0.030390799 0.5681721
