# .PCD v0.7 - Point Cloud Data file format
VERSION 0.7
FIELDS x y z normal_x normal_y normal_z curvature
SIZE 4 4 4 4 4 4 4
TYPE F F F F F F F
COUNT 1 1 1 1 1 1 1
WIDTH 73
HEIGHT 1
VIEWPOINT 0 0 0 1 0 0 0
POINTS 73
DATA ascii
0.40961906 0.23385525 0.78200006 0.019109964 0.057590827 0.17857036 0.18859817
0.41101527 0.23295811 0.77900004 0.017615885 0.069265373 0.17999196 0.19366239
0.40813717 0.22966859 0.76800001 0.020855278 0.083137572 0.17330338 0.1933413
0.40804765 0.23592573 0.77900004 0.01273185 0.098431185 0.19428413 0.21816763
0.40784955 0.23410858 0.77300006 0.013660342 0.12114798 0.20102449 0.23510483
0.41026288 0.23380573 0.77200001 0.013527036 0.12000325 0.20049244 0.23405337
0.40700004 0.23828001 0.77700001 0.013572127 0.1212298 0.20190468 0.23589483
0.40784955 0.23705335 0.77300006 0.014491975 0.1294034 0.20430377 0.2422711
0.41026288 0.23674668 0.77200001 0.014491975 0.1294034 0.20430377 0.2422711
0.40700004 0.24124001 0.77700001 0.014360338 0.1293799 0.20506975 0.24289706
0.40732193 0.23968764 0.77200001 0.014491975 0.1294034 0.20430377 0.2422711
0.4065429 0.2375143 0.76500005 0.014491975 0.1294034 0.20430377 0.2422711
0.40490478 0.24294287 0.77300006 0.014491975 0.1294034 0.20430377 0.2422711
0.40732193 0.24262859 0.77200001 0.014491975 0.1294034 0.20430377 0.2422711
0.40813717 0.24137144 0.76800001 0.014491975 0.1294034 0.20430377 0.2422711
0.40490478 0.24588764 0.77300006 0.014491975 0.1294034 0.20430377 0.2422711
0.40521145 0.24429716 0.76800001 0.014491975 0.1294034 0.20430377 0.2422711
0.40760574 0.24397907 0.76700002 0.014491975 0.1294034 0.20430377 0.2422711
0.40300003 0.24947621 0.77500004 0.0039826632 0.15186591 0.2325339 0.27776092
0.40438098 0.24851049 0.77200001 0.010676622 0.13930844 0.1898745 0.2357396
0.40521145 0.24722287 0.76800001 0.010676622 0.13930844 0.1898745 0.2357396
0.40760574 0.24690098 0.76700002 0.010676622 0.13930844 0.1898745 0.2357396
0.40196002 0.25177717 0.77300006 0.007349968 0.18944168 0.25189996 0.31527093
0.40333337 0.25080001 0.77000004 0.007349968 0.18944168 0.25189996 0.31527093
0.40521145 0.25014859 0.76800001 0.007349968 0.18944168 0.25189996 0.31527093
0.39485145 0.24200574 0.74300003 0.0062145889 -0.082243539 0.36038369 0.36970127
0.39307621 0.24549526 0.74500006 0.022274196 -0.073145233 0.31057867 0.31985226
0.39591432 0.24549526 0.74500006 0.022274196 -0.073145233 0.31057867 0.31985226
0.39128575 0.24900001 0.74700004 0.03073746 -0.05421935 0.10635725 0.12327366
0.39202097 0.24766669 0.74300003 0.024600506 -0.068570763 0.30208415 0.31074423
0.39485145 0.24766669 0.74300003 0.029183984 -0.062787205 0.28213701 0.29050857
0.39023811 0.25117144 0.74500006 0.027754784 -0.060045004 0.29054081 0.29797602
0.39202097 0.25049716 0.74300003 0.027754784 -0.060045004 0.29054081 0.29797602
0.39485145 0.25049716 0.74300003 0.027754784 -0.060045004 0.29054081 0.29797602
0.39465907 0.25503239 0.74800003 0.042629659 -0.0019430052 0.1343106 0.14092694
0.39485145 0.25332764 0.74300003 0.038928658 -0.013063679 0.12665653 0.13314645
0.39809525 0.26201907 0.76000005 0.017510504 0.032327522 0.038118854 0.052959733
0.39465907 0.25788191 0.74800003 0.043257266 -0.003482528 0.13619548 0.1429424
0.39591432 0.25684765 0.74500006 0.043410093 0.0012221392 0.13556951 0.14235526
0.39465907 0.26073146 0.74800003 0.043436408 -0.0030385889 0.1365107 0.14328687
0.39485145 0.25898859 0.74300003 0.043257266 -0.003482528 0.13619548 0.1429424
0.39465907 0.26358098 0.74800003 0.042887092 -0.01105156 0.13487709 0.1419622
0.39485145 0.26181906 0.74300003 0.04363215 -0.0072539039 0.13737673 0.14432169
0.39413145 0.2660743 0.74700004 0.044865727 -0.027723856 0.14618759 0.15541029
0.39485145 0.26464954 0.74300003 0.043091416 -0.013619095 0.13556519 0.14289951
0.39413145 0.26892 0.74700004 0.044437796 -0.023512337 0.13672805 0.14567809
0.39485145 0.26748002 0.74300003 0.045122892 -0.024874546 0.14797854 0.15669227
0.39413145 0.27176574 0.74700004 0.048921883 0.00031763129 0.1513395 0.15905061
0.39591432 0.27103812 0.74500006 0.048921883 0.00031763129 0.1513395 0.15905061
0.39465907 0.27497905 0.74800003 0.046885192 -0.0016000308 0.14456585 0.15198706
0.39697716 0.27461144 0.74700004 0.047970265 -0.002098335 0.14674509 0.154401
0.39697716 0.27745715 0.74700004 0.050005436 -0.026882721 0.27700025 0.2827585
0.40571049 0.2988686 0.75800002 -0.63432777 0.20644063 0.66057432 0.93880129
0.40176001 0.30096003 0.75600004 0.097015366 0.160844 0.03286165 0.19068997
0.40464002 0.30096003 0.75600004 0.10623451 0.16964866 0.032363981 0.20276554
0.4041048 0.30343813 0.75500005 0.047840357 0.11535822 0.017761171 0.1261415
0.40249908 0.30509716 0.75200003 0.048478574 0.11729632 0.017983794 0.12818742
0.40249908 0.30796191 0.75200003 0.052455723 0.1162431 0.019161493 0.1289621
0.39857146 0.31000003 0.75000006 0.052455723 0.1162431 0.019161493 0.1289621
0.40249908 0.31082669 0.75200003 0.052294105 0.11656141 0.017474979 0.12894422
0.39413145 0.31160572 0.74700004 0.039012343 0.1252154 0.0091946125 0.13147396
0.39750859 0.31202286 0.74800003 0.0382002 0.12731375 0.0068099797 0.13309553
0.40142861 0.31285715 0.75000006 0.0382002 0.12731375 0.0068099797 0.13309553
0.39307621 0.31360954 0.74500006 0.037570924 0.12465855 0.0079674125 0.13044082
0.39697716 0.31445146 0.74700004 0.033833385 0.12000832 0.0053922832 0.12480293
0.40035811 0.31487241 0.74800003 0.035506308 0.12534085 0.0048596263 0.13036349
0.3891905 0.31559813 0.74300003 0.028518885 0.080456398 0.011505067 0.086133182
0.39202097 0.31559813 0.74300003 0.028518885 0.080456398 0.011505067 0.086133182
0.39697716 0.31729716 0.74700004 0.030998796 0.11552556 0.003249228 0.11965633
0.40035811 0.31772193 0.74800003 0.030461609 0.11517119 0.0030169785 0.11916968
0.38866669 0.31800002 0.74200004 0.025807649 0.086169198 0.007407099 0.090255365
0.39149335 0.31800002 0.74200004 0.02514711 0.075619265 0.0091297626 0.080212235
0.40142861 0.3214286 0.75000006 0.020824313 0.080525555 0.0038512647 0.083263732
